# .PCD v0.7 - Point Cloud Data file format
VERSION 0.7
FIELDS x y z
SIZE 4 4 4
TYPE F F F
COUNT 1 1 1
WIDTH 2117
HEIGHT 1
VIEWPOINT 0 0 0 1 0 0 0
POINTS 2117
DATA ascii
45.373314 0 29.111248
55.869289 80 57.655651
60 2.4871464 51.041504
0 78.925957 56.063595
17.309891 80 39.109505
26.858597 4.9326243 0
60 37.611633 18.678507
44.495239 80 62.154488
42.22477 21.589256 70
60.000004 42.389561 35.97298
53.364124 80 2.8274815
19.227804 0 59.594452
31.295582 20.82292 0
36.912407 0 41.715481
52.992954 30.480335 70
0 43.688789 47.635601
1.0525125 0 9.3382969
0 18.182957 8.0921783
1.9216704 26.666674 70
50.50375 7.1043415 0
59.861664 80 33.763
45.179832 11.830187 70
21.957668 0 37.156864
59.518547 80 42.446972
14.706354 62.227974 70
0 29.369381 52.349312
28.010323 45.378086 70
60 9.418025 67.400459
60.000004 42.752602 35.748863
29.186657 49.424446 0
38.96138 0 29.784147
59.999996 63.532059 59.62973
0 38.012154 10.398694
36.957054 80.000008 32.880127
26.043207 76.201675 0
60 41.127357 65.504219
15.343055 39.076218 70
60.000004 50.910633 7.3585539
34.642273 80 23.787203
60 53.586823 24.140938
0 77.929802 20.445152
56.212898 0.21282195 70
19.207052 71.459633 70
7.0675564 0 51.588669
4.0164247 80 4.8438044
46.366505 76.846024 0
16.036282 80 53.370476
54.106915 80 30.766573
2.8673515 21.693571 0
16.27354 80 12.662782
0 47.632587 28.679739
19.953796 0 2.4236579
60 29.2607 18.357452
0 15.906752 12.352335
60 8.0665636 21.669895
21.021645 47.916241 70
18.026211 23.106262 0
0 55.184582 47.010113
38.343708 55.027683 70
0 33.937786 53.654236
0 3.4894254 49.06797
0 70.083611 59.190399
10.519914 80 2.1934612
16.389198 44.102081 70
3.3781219 80 38.987682
39.809471 0 34.060524
55.567917 21.755507 0
2.3381488 0 30.397524
60 77.632065 29.505007
41.062965 80 30.315498
0 58.36388 10.374974
28.835949 0 6.5188031
60 39.583118 28.034
1.4822364 70.368729 0
0 70.595078 25.410357
49.182724 57.844913 70
12.228916 0 34.514656
23.979256 63.424282 70
49.727524 22.107368 0
60 64.654503 40.368141
60 14.577058 4.5170155
25.836025 80 54.828842
60 27.239624 64.041779
23.437536 0 42.594166
10.671695 0 2.3657835
8.3372478 0 1.1673248
57.069679 0 12.488586
15.145577 0 45.403786
0 44.551903 67.14666
60 42.96365 43.906025
0 9.5391188 32.724819
0 21.547062 12.274213
40.973129 21.835432 70
60 74.380646 8.8211164
33.557537 28.582329 0
11.549154 75.443382 70
0 35.379063 59.093544
11.58306 64.200417 0
60 53.540421 53.873653
43.021088 80 34.944492
30.766197 80 0.49157605
50.587021 0 12.329451
28.796867 79.878998 70
4.6999664 80 52.450256
45.754833 80 7.6357145
33.633636 80 10.037732
0 45.52977 45.742832
35.695675 75.119911 0
60.000004 72.760757 2.7120323
0 24.794277 69.625679
3.0087578 80 36.314793
0 64.321091 43.9114
8.2810078 52.938118 0
13.795824 80 37.978836
31.889688 45.915924 70
35.041523 26.730543 69.999992
24.860041 80 17.967911
15.848217 80 55.714485
1.9306384 38.264477 0
32.835396 75.397957 70
24.228975 80 41.164974
0 66.459671 45.281124
39.199162 60.365742 70
0 29.558643 4.1934829
0 72.132805 59.50116
59.606628 80 32.157528
60 20.215975 42.204487
44.184864 80 1.1063701
4.0226021 0 27.922392
0 74.850288 33.998604
56.405243 25.213411 70
0.74793416 0 3.0170314
60 49.428585 69.808945
24.228531 78.024231 0
2.8874838 56.397255 70
59.048061 65.441055 70
24.566856 38.910172 0
3.0476282 0 35.207413
10.244986 13.439715 0
60.000004 67.805244 10.363417
60 37.73275 52.650928
14.455532 79.999992 11.745337
0.27237949 37.855965 0
0 29.039104 52.744267
18.992121 2.6106653 70
0 5.8203402 58.822342
39.042835 22.638973 0
20.801455 80 61.59507
0 30.058205 31.329229
60 27.46229 52.049927
29.696966 80 53.119411
60 15.753328 50.740086
60 28.984684 48.913803
6.2747455 36.273388 70
0 79.936478 53.23893
58.672855 7.9021864 70
0 65.14238 47.215332
45.055538 80 51.475773
55.088551 69.085182 0
60 52.971397 9.0502338
0 56.631756 55.62326
0 5.490428 65.239761
46.839146 31.743128 0
0 68.98156 10.394588
60 63.03389 53.272236
36.851925 0 44.189827
21.901722 30.520639 0
60 4.4901042 8.2512274
45.031666 45.293289 0
0 27.951553 42.324684
60 59.683693 47.125656
0 74.001694 36.786327
0 12.634953 13.550627
0 63.248596 61.291794
60 33.936684 60.204964
0 76.624802 27.293047
60 31.739269 26.05488
23.726583 0 50.480721
4.6800227 75.945961 70
7.8836813 37.176926 70
59.999996 55.280514 61.609165
0 5.3925052 63.292957
60 43.11187 56.782883
0 47.858143 5.5232992
11.199499 6.2983832 0
60 12.978749 5.6396527
0 6.8782578 17.209402
5.5115323 0 33.756531
0 73.254585 1.8763363
20.236877 33.98465 0
58.224419 31.332048 70
57.309483 39.910038 0
15.180605 80 11.349448
59.999996 70.916595 0.0059522185
0 60.084026 38.626423
5.8243237 80 53.025177
60 16.053116 45.815239
60 5.7771244 53.030338
42.512775 0 58.81181
0 5.7049575 41.90799
0 29.418739 5.3398628
60 58.965023 44.614338
28.183046 37.271214 70
8.8334017 0 24.588251
9.970129 34.830338 70
5.8247032 4.716042 0
60 72.288666 39.622707
29.66444 74.153191 70
25.051096 29.710917 70
46.766953 0 37.380959
15.904079 22.787746 0
60 9.7086887 51.473434
31.378197 51.808926 0
33.836842 0 44.922199
16.782249 0 67.995453
60 73.607956 41.879883
60 66.469551 68.927979
0 47.170963 68.945053
46.72131 39.722927 70
49.340294 0 11.866281
0 1.5167934 56.309299
32.677841 32.072495 70
60 15.919244 69.60907
6.4277964 79.999992 23.96303
60 56.971741 7.7960792
50.02132 34.457085 0
14.875392 0 45.085148
0 20.398272 50.367142
0 64.985451 2.8003855
0 18.808872 55.798958
22.333422 80 43.477093
60 34.759296 26.499405
46.942917 54.202061 70
35.82975 0 37.60696
25.786007 35.111595 0
0 75.154968 49.120632
51.341431 44.969151 70
59.999996 51.542175 38.917183
19.341066 80 54.259193
10.988112 14.680267 70
0 29.90147 52.17857
60 10.600604 35.112213
59.999996 61.64119 58.740627
15.03817 5.613111 70
17.120001 14.976223 0
60 18.955912 62.327862
0 34.666794 41.223694
44.600994 75.44175 70
0 56.226166 35.202084
60 27.858271 69.817863
60 29.999943 14.566341
42.898365 0 62.651024
60 71.476883 7.7520814
25.725037 0 63.03957
54.055912 0 30.37043
37.360825 0 20.588108
60 14.073053 5.2102838
12.626334 80 41.985184
13.780728 57.747116 0
4.6268034 80 54.124187
60 36.458546 57.803448
0 57.811489 39.759022
0 54.752388 36.588665
41.820923 2.9854026 70
52.501236 0 0.86356699
4.9052939 33.374756 0
0 79.306252 6.854115
60.000004 71.562111 56.918694
26.843231 80 31.929592
60 17.686924 15.686556
0 4.9530892 24.960648
6.4637918 80 40.551258
0 31.064615 53.052845
12.756237 69.346764 0
57.395966 80 11.640121
0 24.278728 53.532238
38.445087 38.942188 70
30.091396 50.51049 70
44.767162 0 21.118528
0 8.2049179 11.168129
60 39.954777 5.9320655
40.691566 38.367455 70
60 35.990265 39.586803
39.227364 0 33.497128
42.663185 52.705017 70
60 12.38918 26.751173
4.4276981 73.818947 0
0 51.906105 49.112339
42.084816 15.485855 0
17.438417 49.064774 70
14.211703 80 47.026669
60 48.158886 23.656919
10.337826 58.660812 0
53.359882 76.906197 0
0 34.388226 42.301003
39.986961 4.8030481 0
33.131786 0 39.467396
39.421608 0 53.947643
57.382633 56.178169 70
0 26.179995 58.913609
53.717625 23.792212 0
18.979622 0 0.90061307
44.490822 80 7.4807858
42.196484 0 59.68816
2.3738811 55.555298 0
25.999554 39.99744 0
59.999996 72.712326 11.832876
0 13.86444 50.998989
0 77.1464 45.896011
24.491533 53.152233 70
28.791826 0 42.039692
60 8.002243 48.260876
0 35.979767 34.309731
58.171402 45.264549 70
45.038128 17.870974 70
47.398369 80 63.745506
27.211885 80 15.853141
0 13.285576 14.952211
28.008427 80 35.253067
3.8022048 80 41.937202
42.221519 8.8119011 70
13.456964 33.87352 0
60.000004 69.722382 64.106438
31.365667 52.860115 70
56.678631 77.86039 0
7.5449777 80 32.55994
50.046394 80 8.0282259
0 72.049171 11.409037
55.028915 80 36.612545
13.086956 10.258806 70
0 48.951416 8.9038458
60 2.5988226 26.660128
0 18.162943 69.821716
15.902599 80 53.797607
0 56.772118 39.997761
0 9.3238974 49.188423
0 55.777477 22.340471
0 28.428972 12.509811
47.297394 80 42.284092
0 18.691608 53.480644
60 44.44017 16.972919
57.390045 79.999992 29.121717
24.010031 40.819935 70
60 5.2320657 4.4340873
60 20.536098 63.159561
0 34.451706 53.960972
60 9.34161 59.308117
16.701876 36.208164 70
21.822445 80 69.771309
15.238508 80 39.579269
0 69.480461 53.4543
31.805969 80 1.2445201
56.669983 22.883131 70
5.4695292 80.000008 34.921135
26.165997 29.555948 70
55.454777 27.867868 70
31.60994 4.5777197 70
0 3.3061783 32.7047
13.32876 10.555654 0
27.942139 34.298119 0
0 54.488075 56.704182
4.4498839 11.790694 0
60 40.368839 3.7157547
0 26.78507 63.497078
0 18.893702 63.463417
60 23.323132 69.874329
29.059055 26.753695 0
0.49676621 80 41.688545
0 16.794542 60.996708
37.638702 0 2.1624827
44.539417 67.203758 70
60 11.218406 45.435322
32.992924 0 39.95314
20.636497 0 26.495153
34.245991 68.011017 70
0 73.070915 31.347673
12.979576 0 23.595146
60 38.566574 42.365219
0 21.277515 27.723114
29.855293 63.641941 70
41.407299 74.482788 70
15.141109 77.02655 70
59.738907 0 54.709042
29.339842 40.122074 0
60 27.840664 26.59536
5.1542263 60.905308 0
34.469601 0 22.04357
31.686661 48.056313 0
20.086346 28.175117 0
10.659813 80.000008 4.8732705
0.9050014 11.225375 0
24.15202 49.516205 0
60 50.394184 8.4941816
23.380005 0 53.642139
33.904957 9.7521095 0
21.558123 7.2017608 0
60 76.494682 8.1330395
43.514019 78.313293 70
6.4996767 80 35.298592
60.000004 51.314137 8.1001892
0 71.089195 47.868668
37.468151 51.913593 70
45.146751 80 4.6522789
38.658699 0 18.612501
11.315496 35.501312 70
60 53.37035 47.438824
60 27.506975 22.300489
1.5105863 0 47.124619
44.801346 70.913895 0
47.164898 0 32.666897
5.5719619 80 23.236902
60 28.239122 18.179602
60 56.822723 33.03117
0 21.69113 14.640965
29.149851 80 32.109756
28.805143 80 52.300724
18.812534 7.4017239 70
12.890285 80 13.433243
59.449734 68.402557 0
0 38.956184 20.145061
36.895927 80 22.925085
0 25.842648 23.635012
60 32.794792 64.938988
48.537785 76.961113 0
52.841896 80 68.72406
12.267219 60.449337 70
49.27636 67.375542 70
60 43.077888 6.1011229
32.746761 69.414322 0
57.741501 17.191326 70
60 60.782543 8.863018
32.642143 0 6.7994213
60 37.329681 33.411572
31.678387 40.309155 0
0 74.286888 65.858879
24.143936 57.816944 0
11.268214 2.8028893 70
37.094059 0 24.604393
60 49.240452 11.761353
58.148766 0 30.09141
0 33.113171 49.959953
0 45.681828 39.804089
60 1.5510662 60.83955
60 38.376652 6.330636
10.649284 35.133484 0
5.6974087 24.069876 70
10.69008 27.625799 70
11.230075 0 10.772614
50.004284 0 21.902805
55.479893 0 23.508247
52.1161 70.770279 70
11.070132 80 18.454975
0 4.9863949 14.962455
49.720184 48.248169 70
0 46.289425 63.152069
33.48592 2.4080517 0
0 54.949657 6.8807898
7.012115 4.1652598 0
0 45.595535 32.860283
15.211635 75.87674 0
0 21.894732 28.798882
60 54.277138 13.497942
22.340282 28.321663 0
8.8663015 80.000008 61.362156
40.501308 44.128166 0
47.317223 0 23.810884
39.698948 0 68.114693
49.800255 26.069599 70
54.468945 62.281208 0
44.824909 80 66.568832
60 7.963522 44.632755
60 65.583382 9.8148928
0 42.194302 57.615978
6.5965509 0 17.436266
0 56.442734 19.868933
38.735535 1.1435205 0
5.9583416 0 50.575199
0 5.3223968 18.670988
60 6.5068216 51.337475
60 70.345154 24.343683
3.0093887 0 43.980518
2.131026 9.0798187 0
33.824085 59.564949 70
14.768447 31.342489 70
0 23.290268 65.802078
60 77.904427 11.448877
60 25.227299 37.558167
60 5.9824085 30.052557
0 60.541203 3.8276827
52.695621 4.6836824 0
25.924759 79.681877 70
44.160858 0 55.731815
59.360836 0 55.252869
60 28.067732 50.940193
60 36.368397 20.015894
60 42.534939 46.739784
4.5541897 0 64.01976
60 5.04914 55.449188
2.1569538 0 65.2854
54.728642 0 55.069763
60 13.633958 1.1815571
36.212406 80 42.725479
60 78.478973 44.156521
2.6225677 80 46.656914
45.716816 28.968918 0
36.941326 60.459534 70
60 58.765507 15.953519
5.0939264 47.35519 69.999992
26.122602 52.904701 0
16.203772 0 24.491165
48.806202 35.170506 70
60 7.5401549 4.9964972
13.521119 28.769518 0
60 13.390209 44.327618
24.323591 36.289921 70
49.056786 0 30.400408
42.006672 53.405586 0
25.845873 47.709 0
54.753662 49.168568 0
0 63.06686 3.3404887
0 14.620047 56.307568
45.049438 32.60194 70
60 31.083918 64.025726
50.146225 6.9868851 0
9.4695139 33.364792 70
42.504932 0 55.369686
60 64.490227 28.646357
19.148651 80 0.57421482
57.7034 80 23.603172
60 7.3104997 40.50642
21.131845 0 43.596535
0 60.752422 10.838954
33.506416 28.723156 0
38.96682 54.592594 0
26.756769 29.252102 70
60 5.5150862 37.749645
0 5.9159708 48.778168
0 43.175556 45.412239
29.13658 37.48497 70
0 44.602669 54.30011
0 78.769829 19.407404
60 35.950474 65.057762
0 21.298454 19.736465
0 22.148195 3.8243616
60 74.859543 16.713329
56.634914 0 52.480534
50.815468 80 7.1792736
50.938343 38.230194 70
60 54.50745 48.793079
40.82217 39.353424 70
32.070477 80 61.7799
0 8.2383356 40.863987
10.233692 80 55.492069
27.029245 80 61.391479
43.062183 43.237911 0
38.618572 13.436496 0
53.550404 5.5221777 0
60 16.893667 65.460411
14.654856 80 24.060883
31.705734 80 3.2965531
24.632057 80 19.865803
0 75.422615 9.5857143
45.107304 0 19.565577
39.119827 0 6.136034
60 27.127863 42.186722
27.785633 23.696047 0
60 76.962929 24.93865
0 43.461929 13.081228
30.473698 80 34.392162
41.395008 0 62.629974
15.781117 80 40.170864
60 6.7834034 66.270737
19.345301 37.838726 70
10.941704 0 54.664845
40.442585 0 39.7906
6.1091042 80 47.900211
6.6808038 0 27.00989
0 12.683011 27.174362
29.420849 80 20.89752
29.768614 80 0.31257865
60 60.427814 29.788948
24.969109 41.131363 0
10.509059 0 67.874672
28.829433 0 4.2492418
25.735622 30.027948 0
0 24.666767 64.284431
0 38.889473 40.907146
38.564674 0 38.59832
60 8.8292685 15.857536
29.246759 80 41.988285
0 20.789124 0.22163391
47.292233 52.751553 70
60 59.999756 4.9695859
52.961113 80 57.910301
28.759943 29.573267 70
27.734489 33.113605 0
15.507465 0 12.031213
3.5761206 41.612396 0
60 52.747749 2.8470778
33.270988 1.7592182 0
0 8.378149 21.315111
6.6303544 57.346653 0
60 37.445728 67.496925
0 76.240852 11.0051
31.350079 68.352448 70
60 32.097023 56.788452
60 41.75816 31.7528
28.270329 32.67675 70
0 65.636826 0.74286163
47.320824 36.839661 70
43.531166 16.857899 70
39.32481 0 39.307251
35.784317 48.079617 70
0 63.464653 29.316212
60 40.502178 1.0391022
0 41.530415 68.468971
20.932285 80 48.541592
1.6704928 80 24.50901
60 33.069195 26.624611
60.000004 61.349945 57.285706
0 40.404709 16.525015
58.738922 5.7072101 0
20.559023 74.111305 0
59.999996 77.11985 8.6924267
0 36.150757 3.9703178
0 25.173447 44.245243
55.253262 80 45.233044
53.377045 44.051052 0
60 13.647013 28.868792
60.000004 77.835342 4.3400354
0 75.078239 24.69556
39.942795 0 14.751882
0 7.5470667 32.599705
0 54.920238 53.062576
2.245796 80 43.01778
15.270324 0 37.010342
46.900536 52.365479 70
7.4292569 77.826256 0
0 69.627731 0.68615973
37.027733 4.2418313 0
40.52433 0 20.135624
44.72731 53.15934 70
28.039177 46.433952 70
0 76.98632 50.76989
8.2660608 80 17.943125
48.110275 2.5129011 0
54.739723 14.952291 70
60.000004 37.249142 51.596573
27.006325 73.919151 0
60 18.901011 23.710489
2.2394748 0 31.370834
45.726704 80 15.644873
27.814308 80 56.331829
16.493351 6.9703097 70
0 4.8889599 65.19751
60 71.393158 10.364249
60 14.934536 12.885922
60 65.28508 39.636402
9.0016842 0 1.9125813
25.532696 70.81147 0
60 39.074078 52.684082
32.558304 0 19.923206
34.19524 0 66.986549
9.7141247 41.988281 70
25.655939 80 35.550041
0 20.887407 48.353786
0 64.802826 41.364231
15.769125 27.605799 70
13.042051 30.378971 70
60.000004 8.4064341 28.246826
0 48.724976 69.434135
0 18.088327 46.988327
8.7127733 71.512726 0
49.537823 16.309427 0
48.014893 0 16.466711
60 25.950975 38.588097
16.363008 0 15.918592
57.75507 1.41143 70
40.704647 80 63.145542
33.707684 21.932766 0
60 16.082718 9.0120487
20.000137 73.689079 70
11.096622 1.9319271 0
0 60.157452 64.853584
3.4191787 23.113474 0
60 36.625729 25.308275
60 31.065882 54.351463
0 25.352903 68.755127
0 1.1555868 63.151955
0 72.911552 25.558943
0 26.447536 60.930408
0 50.819214 6.5834284
60 35.5965 31.335697
13.844724 51.206844 0
7.105669 15.730982 0
42.667873 12.412614 70
48.856998 66.274384 70
1.1055676 79.999992 65.165657
16.870028 39.093658 0
60 3.6702719 18.773073
34.657085 80 41.485844
37.420898 80 20.668077
14.210201 0 25.227715
6.9843078 7.3873501 70
53.45974 61.396084 70
60 19.292616 38.513039
60 18.612263 29.259289
49.694988 67.171555 0
60 7.5153699 34.736874
39.801685 5.6788983 0
0 19.573471 44.620518
60 51.580902 62.312756
27.721321 30.654144 70
60 15.788531 58.570843
36.473927 80 19.46064
6.8695221 80 38.135185
2.3178084 80 14.676517
24.320255 0 62.684681
25.583458 0 10.671093
56.951054 54.784466 0
40.519363 53.272503 0
58.17144 62.701107 0
14.42594 79.857658 0
0 15.764108 28.407543
60 13.368698 16.415588
0 76.139771 2.486881
13.959224 80 39.266838
60 8.9270649 32.887131
60 71.235146 21.056189
22.886772 46.485828 0
60 75.763817 18.629009
60 33.786282 62.144672
18.515657 30.419937 70
9.5023279 80 46.678917
0 73.691139 4.7353177
60 9.8549118 48.50182
5.8554602 0 11.524058
60 73.952866 4.6287518
20.029665 80 45.4207
0 45.066681 50.637806
16.350426 19.840933 0
7.6571202 80 21.029243
51.527615 0 1.9238675
36.751369 19.261209 70
19.618189 50.538128 70
0 75.548744 39.001789
60 79.09906 32.836349
60 48.90379 11.961126
46.228439 80 11.051301
22.680904 80 64.340843
37.043739 80 68.353416
6.7786145 5.9754925 70
40.520218 80 15.457624
46.78793 49.560143 70
44.504154 0 34.084255
60 66.050751 48.840199
0 58.185181 67.968399
47.59457 71.220634 0
36.115707 49.898628 70
19.81492 0 34.106136
60 27.527355 11.315458
35.637306 0 60.004478
0 38.758369 20.588554
0 59.349709 16.906153
60 13.341105 37.446514
29.04204 25.800842 70
43.017998 79.4217 70
27.716131 59.391655 70
0 50.178082 66.912468
11.098253 80 21.040462
18.22884 3.815573 70
49.774323 77.528992 70
8.1597624 36.391087 70
52.523315 49.520054 0
0 56.222961 9.1240034
43.047195 0 12.567936
60 30.219637 7.8703198
58.267826 0 34.535805
57.647945 66.958549 0
20.800631 0 58.350929
33.614922 80 48.328815
15.067897 0 17.455414
51.296806 75.332787 70
59.346397 80 59.79554
13.830418 15.145596 70
10.51393 0 9.1075811
40.406494 80 23.941408
44.654751 80 38.509151
0 8.0064096 40.284317
26.067942 28.641392 70
60 57.876808 54.939877
20.243046 80 0.011675404
12.670473 58.025215 70
60 13.247766 11.928213
60 58.634254 0.040493533
28.505201 4.2299089 70
60 22.017771 13.500881
0 54.976547 1.2156779
34.004208 0 27.713722
4.4021983 80 17.517704
0 70.03141 38.175182
0 25.397707 8.8768015
0 34.619198 64.552559
0 64.164948 7.7578835
30.246443 52.492977 70
45.751442 80 21.881208
54.443096 68.413315 70
37.481823 39.919018 70
60 78.237038 23.621954
7.8209562 19.190435 0
37.955475 80 21.365593
59.636299 0 47.954586
0 47.556511 12.87686
15.66501 80 21.451578
17.109921 80 30.057077
0 74.434975 16.825266
53.691799 0 56.725094
4.1541457 38.116047 0
38.00724 0 18.023029
40.906841 37.590698 0
28.521139 46.56757 70
37.336617 80 35.379051
15.882414 30.586519 0
60 77.201904 49.71492
32.822975 80 33.590122
0 2.8222268 64.834457
19.545048 29.879049 0
30.916296 38.772308 70
38.34919 38.391388 70
0.39283276 28.311447 70
28.093119 0 35.401657
60 76.474724 68.552345
9.4175854 11.760256 0
59.999996 10.672071 12.184606
0 26.020231 52.815804
0 53.322651 45.425457
0 53.171478 3.383956
41.718872 0 56.234226
0 3.3586836 9.1269741
43.920757 64.830643 70
41.830791 44.389496 0
12.470952 35.398445 70
9.757247 0 21.812119
6.8047857 6.1900463 70
14.1676 35.403217 0
60 9.8668375 27.419031
58.02562 0 65.124657
5.4731898 66.890427 0
23.06492 80 55.63633
53.518497 80 59.305683
60 38.669136 10.779326
14.334437 80 33.245384
51.688557 0 35.393841
25.117743 16.994013 70
45.40649 0 7.0345778
0 77.204475 48.407116
16.492823 70.066734 0
19.244772 55.507114 70
51.556541 80 23.095526
0 24.262587 41.371189
42.53693 80 12.612652
60 76.652016 27.605564
0 69.127846 26.005882
60 29.291897 65.008644
43.291039 12.773496 70
11.223385 41.338451 70
31.270573 0 21.626129
22.514841 48.075611 70
0 22.18862 23.528021
0 55.623135 38.364059
48.904541 19.357273 0
56.026089 73.355827 70
38.46278 16.609489 0
18.470364 55.154293 69.999992
27.796909 26.419661 0
46.029083 44.459057 0
27.391247 31.405161 70
60 75.400864 55.38261
0 24.842434 44.081528
0 51.25539 52.353664
60 56.34288 59.934799
6.0001936 17.95668 0
59.518921 34.667831 0
47.474644 80 56.552414
60 43.945225 68.45108
3.6495066 80 29.690952
8.6173697 0 16.272911
13.532551 20.639786 0
60 50.81834 58.703789
32.308224 34.639408 0
1.0662397 22.332836 0
8.7762165 9.8145056 70
18.407406 79.999992 65.254059
18.004108 0 33.10833
47.574669 44.990921 70
58.6516 72.834518 0
43.782162 65.465546 70
50.774323 0 66.099724
16.259235 80 19.998945
0 57.511757 22.598883
55.70472 16.739645 0
60 55.985519 5.559144
6.7625771 80 41.320297
32.243382 37.043255 70
37.494984 63.058086 70
40.169403 0 25.673231
57.265915 80 21.366241
6.0487571 0 12.882126
60 5.7614503 21.042513
0 8.3673754 51.812469
11.404251 12.388985 0
42.664989 41.004887 0
20.919645 43.273823 0
24.974077 55.042469 0
22.603931 46.727215 0
40.446346 0 62.618149
0 73.191315 24.325024
28.322882 70.055527 0
37.28299 26.424589 0
24.490952 0 20.53298
48.118019 73.676613 70
22.535038 77.475494 70
0 0.99037611 6.4807892
13.298971 51.300179 70
0 67.090164 26.215446
55.197845 80 40.76836
43.449631 15.484316 0
48.117741 80 17.186962
22.999846 80 51.252983
52.556767 16.101091 70
56.643158 24.09623 70
60 7.3871808 63.775524
39.860302 64.312691 70
25.874113 80 69.318687
39.010609 80 32.325977
52.381081 25.748123 0
48.858311 80 59.516476
56.528309 51.76593 0
18.467478 80 40.469719
60 4.1231699 9.1569729
60 7.7407565 48.768688
17.687124 80 56.638409
24.65074 2.5182505 0
52.566723 28.843939 0
0 77.369766 7.3703728
10.322021 80 37.206352
7.1035089 3.1320844 70
59.159325 38.582424 70
60 20.878874 34.71447
60 76.218658 13.656354
45.84087 80 48.654373
29.577072 80 35.049477
22.414944 0 30.597729
13.750506 80 10.330315
56.654266 45.458061 70
22.102583 44.180847 70
7.6905065 80 62.889671
31.953091 57.442104 70
18.701063 80.000008 41.885452
42.383842 58.311588 0
59.171631 69.29158 0
22.763626 0 36.912243
0 27.796013 27.565254
60 28.912582 18.164257
55.781879 80 52.843094
15.036687 80 63.049725
43.783195 69.896095 70
0 0.53311741 32.505638
5.2089615 0 49.684536
37.124096 0 6.4289608
60 27.833584 4.8703914
43.305233 52.247047 70
0 7.0440345 34.001827
34.896561 32.804359 0
0 49.143646 15.818557
11.122032 50.525154 0
0 78.921921 24.965057
37.653503 80 62.581921
0 73.681641 12.850038
0 34.625298 39.422424
60 1.3378438 40.138138
38.802006 80 41.34898
8.6006031 0.38147664 70
0 52.410252 48.594368
59.999996 51.5131 46.262737
18.567551 0 35.704048
8.9463654 33.828075 0
0 68.337685 24.023382
39.895596 80 19.988848
24.15222 25.753139 70
52.879738 22.43647 0
30.080055 25.729792 70
60 59.031998 49.663612
58.679146 0 15.864949
23.912596 68.376495 70
60 14.169319 66.303513
23.168051 50.082069 0
60 70.83712 11.386225
48.915188 25.123505 70
51.107552 0 67.667709
40.036045 40.200638 0
19.130978 0 4.788373
21.052654 22.595396 0
60 14.590769 11.766078
43.565712 0 31.407778
35.31105 0 40.067924
0 41.296387 13.665521
36.179798 42.214119 70
53.591084 74.549637 70
1.3502918 12.844162 0
60 30.820145 38.757317
45.441086 49.106731 70
0 1.1058917 30.643011
11.465335 80 54.666374
60 76.356689 50.215401
53.962753 7.3598542 0
4.1671948 80 67.480774
0 30.387161 47.182861
37.222439 47.38353 70
16.420868 76.510338 0
0 54.567162 13.315208
23.841143 46.869488 0
35.812969 64.259071 0
53.003201 80 61.853935
29.902092 0 13.286356
53.674221 0 54.818745
32.951099 75.015739 70
12.330593 80 45.561417
24.434036 50.46283 0
60.000004 68.577286 5.2548022
34.232769 51.946945 70
15.981467 80 33.409977
24.284138 0 65.903625
35.017132 0 63.993099
54.566055 47.757534 70
13.702636 69.146835 0
34.536568 18.412094 0
26.418604 0 34.831894
60 73.255058 4.603785
44.092297 80 26.890936
0 4.0716763 41.726688
60 8.2465706 68.713493
60 56.169209 35.789654
33.869236 23.472321 0
18.096189 44.285027 0
27.605169 69.587662 70
43.562462 39.610561 70
31.064405 0 34.265087
9.8532019 55.965408 70
60 28.12619 36.824902
33.98196 80 30.032045
23.194435 0 0.080459118
49.516834 62.945171 0
0 45.582809 67.391624
39.255917 28.507002 0
43.790649 21.773674 0
0 48.673592 58.314774
49.795685 49.499542 70
0 47.076221 35.230679
30.806675 43.009239 70
0 68.563972 69.222031
37.158398 39.548233 70
25.872332 70.882866 0
0 67.880547 28.062157
60 7.0921297 30.941492
0.57299548 39.166885 0
16.96549 5.5100803 0
60 16.239735 4.1682835
15.154113 70.967751 70
30.737179 43.716354 70
0 60.556393 54.948486
27.064356 57.339516 70
18.350237 80 44.821228
58.317249 80 25.508947
0 41.714466 28.272976
30.769136 1.6554365 0
58.181595 80 63.450275
60.000004 54.612083 3.6910808
46.981949 60.036777 0
60 8.0038414 63.08606
48.912537 79.243416 0
26.721502 80 38.250816
60 51.836609 20.640541
39.942017 58.224262 0
16.359529 80 50.080677
13.64699 80 50.169357
45.467068 0 64.853233
0 23.901077 10.030011
10.23888 0 42.690998
0 50.668636 4.4248967
5.3007822 0 69.594688
27.187607 62.346706 0
31.729343 70.532471 0
0 54.592625 37.931217
60 42.139618 26.28022
60 25.459827 35.156319
46.16597 0 45.342903
27.598818 31.137077 70
0 53.42046 14.246058
0 72.436295 31.519882
0 42.809834 52.03191
60 1.3347417 49.040283
53.841263 80 3.872623
31.254829 0 27.274982
17.606647 80 48.094727
18.148968 0 1.8287969
20.020138 21.166864 0
15.299723 80 33.144375
60 37.271057 10.295485
60 63.767918 57.476151
60 30.465612 24.046545
7.0825348 80 19.408051
21.569187 80 60.590534
60 55.982807 61.019512
38.358643 80 19.312948
0 57.981876 34.80225
37.415295 19.516996 0
35.61496 29.327637 70
48.12722 80 50.56741
60 12.271145 12.583792
2.2379525 76.735748 0
0 23.728838 17.229507
18.153717 63.368073 0
60 20.347075 18.070278
59.541645 0 60.555622
0 70.354462 12.408825
6.6013064 46.223812 0
1.4951348 14.727549 70
24.599337 80 62.347977
7.8860736 48.553955 70
30.130833 80 50.962502
20.424961 5.1079741 70
60 66.138924 27.491865
7.796875 0 48.412712
0 13.494789 23.037609
60.000004 25.834604 26.759676
7.5864434 25.280682 0
50.056171 80 35.430187
3.40295 80 10.671093
0 30.521425 47.078594
25.320549 0 23.875809
60 53.579723 47.867111
51.252285 80 65.897804
60 41.25811 26.031723
12.433241 51.72963 70
58.404861 29.399632 70
60.000004 47.710609 40.13176
22.553154 80 60.681938
43.481236 80 19.647173
60 47.50473 17.321154
0 54.402702 30.29324
0 48.478725 29.017336
53.380135 0 16.665543
2.6250732 9.8057156 0
42.90881 80 14.365368
0 46.800232 41.696846
28.982433 0 54.826942
59.999996 15.380165 21.795382
0 19.209204 54.510544
37.440357 74.780609 70
60 9.1447992 15.094163
47.269703 21.389673 0
60 68.375458 11.497043
0 2.8778706 69.559776
60 52.237404 19.737776
1.2197827 80 46.352604
24.291933 61.124954 70
0 53.882778 62.362171
22.845028 80 53.033852
35.326885 80 10.563581
59.999996 1.7033919 5.6819925
24.25075 12.776099 0
60 16.77088 38.968567
58.571095 0 57.55928
6.2181144 0 19.940626
59.398293 32.14967 0
59.53767 1.2459656 0
15.918828 51.533207 0
59.999996 40.47002 60.501823
54.934418 0 32.39362
3.59693 80 49.294216
0 6.4184227 22.755577
60.000004 78.25666 27.920637
30.955795 27.867277 70
0 38.060066 12.38354
0 3.6116202 58.422817
59.936596 40.254509 0
60 57.36731 24.083515
48.107609 0 10.190371
60 30.530958 64.157661
11.841718 80 12.617496
40.810062 33.216663 0
60 13.641128 61.771248
0 71.57373 30.899193
0 33.462589 65.587128
19.914797 19.603786 70
0 46.589108 46.796707
60 28.9181 3.0665269
54.156425 0 56.823879
49.677177 80 31.417515
0 61.062775 50.500576
59.999996 68.414413 52.631939
0 66.040962 58.130322
31.428574 33.861565 70
34.999908 80 52.462521
60 59.961796 46.634884
0 27.700888 59.234921
2.8050387 13.189824 0
60 71.156013 30.522554
38.215275 47.247997 0
19.771544 25.693163 0
0 10.705855 33.707767
56.999783 80 66.938354
60 12.340065 43.554707
0 56.815845 57.033806
0 76.080109 6.4216833
40.755527 20.476276 0
44.638382 0 63.241272
47.967072 17.479296 0
52.658504 53.903553 70
0 57.143341 48.271317
33.628242 20.638056 0
60 43.002842 0.56874126
50.392357 80 45.93301
55.920586 9.8269892 70
47.882175 0 48.332306
27.843496 0 3.5984592
44.263294 4.3725038 0
9.9542542 80 61.93681
54.31638 24.582809 0
60 33.686878 15.111044
60.000004 63.337425 43.572681
56.307331 80 13.656388
39.011269 0 30.460447
0 70.039406 8.9217253
9.6728296 80.000008 45.960342
16.543625 28.253426 0
0.77730697 0 51.259487
7.8184605 80 43.019714
0.31336614 12.110699 0
11.713966 52.756153 0
32.971912 17.932417 70
6.1706548 79.999992 49.903248
9.9639177 0 34.16354
0 24.576021 2.846982
59.380608 0 63.478249
8.229887 80.000008 0.19196521
45.374397 20.362818 70
0 43.174644 20.766125
26.092518 80 30.270016
17.410326 39.368187 0
60 20.638268 61.510876
7.9157934 80 25.145172
5.397191 50.229095 70
0 58.581108 54.572731
50.762695 75.606468 70
60.000004 58.522533 1.0458293
34.826992 0 1.9566077
48.813881 80 42.490585
50.038208 0 12.10747
39.609013 0 16.489
60 58.690948 19.006102
40.162312 0 27.517094
42.786869 80 63.027786
59.076527 0 9.6029148
60 38.333069 69.106148
0 38.87735 19.815727
44.138859 25.341461 0
20.036125 0 9.4456348
8.1067972 60.643509 0
18.200726 5.5558276 70
57.107899 13.779787 70
60 32.680202 56.187138
0 76.566872 1.9770771
29.046299 80 25.074951
0 16.840744 33.134468
60 17.118422 3.936857
15.158703 80 37.303108
0 50.862816 63.442806
0.33322692 13.2363 70
5.6748176 63.471523 70
0 37.724056 1.9310188
47.187962 80 31.477352
60 37.339745 8.9626703
39.089912 80 47.051495
52.012325 0 10.5569
60 14.381111 60.07476
0 26.524179 6.2182207
56.601894 62.087925 0
60 47.561787 28.00832
0 52.584793 31.656582
60 19.180628 26.48156
33.92836 36.352211 0
4.1065917 27.322269 0
0 1.9338174 28.054043
60 56.744186 22.373661
45.429409 78.759178 0
0 57.921848 51.231834
50.326675 0 61.314014
60 65.812126 20.586081
44.439434 22.650867 70
58.160248 0 65.629784
0 12.423235 29.289356
46.605068 38.838505 0
0 40.565605 44.969532
29.851227 80 65.430763
60 62.480404 38.313938
25.310581 0 31.82093
17.968367 0 45.876637
0 19.813698 29.732782
21.231127 80 20.917656
60 62.306362 6.9743052
49.651627 77.777969 0
49.121643 80 60.099014
5.733705 80 40.382805
0 72.873703 54.440781
0 10.93593 14.07463
58.807236 45.708347 0
0 16.652147 50.589977
0 30.159761 48.9702
60 38.180012 0.97949946
46.076878 80.000008 19.394346
0 49.431065 37.51696
45.734646 80 58.436169
38.293571 48.989048 0
60 35.211578 6.0689125
36.286705 34.958954 0
49.378876 0 10.736319
27.022907 0 54.418919
60 70.76033 22.920135
0 5.4488759 13.715851
53.18182 52.396175 0
37.25919 0 42.420071
20.752163 63.62952 0
0 53.004036 14.397902
60 70.315895 7.4300251
40.444935 0 68.629417
53.938541 78.639458 70
27.964508 31.241116 70
49.179043 39.205441 0
60 7.938962 22.116085
48.534042 0 54.442902
41.780422 25.376192 0
42.028442 0 39.273529
0 66.14019 32.471836
34.137066 80 10.538826
60 9.9956665 28.788443
27.650486 0 39.287037
46.408531 80 41.166004
60 41.814995 39.40546
18.110111 38.843811 70
0 76.316925 49.038429
46.861828 40.663006 70
38.249859 33.598034 70
42.524963 0 59.153038
32.476543 12.408355 70
13.675482 76.865128 0
41.545929 2.2575691 70
49.835041 0 49.564369
18.219481 23.254305 70
60 29.414097 59.552677
0 72.908195 46.709023
57.142475 80 56.578697
35.361942 32.701931 70
60 2.9355268 5.8793287
54.097153 21.726662 0
0 57.642975 56.644989
60 30.816917 67.209259
38.330685 0 55.632904
26.812147 27.764153 0
60 14.904845 34.794796
0 44.274456 65.431976
60 14.42139 53.73991
0 20.163134 43.474609
3.7256839 69.894142 0
60 23.522556 68.400513
52.657391 2.9070516 70
0 72.629982 18.076506
1.4915198 80 15.068744
34.511829 0 64.905212
15.423844 22.115852 0
60 3.9066384 30.638912
29.078466 0 50.544579
0 68.892097 15.526398
1.5285256 79.999992 29.710421
18.812067 52.349354 70
9.759407 0 51.156643
0 49.918137 27.770645
0 55.259613 43.828171
0 11.452924 33.603558
0 54.376205 41.229652
59.999996 38.323406 45.782051
21.651304 80 34.218994
23.562233 21.101086 70
55.333534 47.628086 0
60 59.097092 49.225792
59.999996 53.446075 4.8262048
0 50.07674 66.407799
52.994385 45.924564 0
0 56.342461 48.063202
40.765198 80 46.43412
0 14.921157 3.7999244
56.655483 36.88773 0
2.9941099 0 12.624638
0 37.776459 10.636408
17.15963 40.555988 70.000008
24.068897 0 57.932331
60 50.083645 53.697628
11.086861 24.167614 70
55.274448 80 39.739902
52.332302 15.074157 0
60 53.216454 49.669643
32.282078 80 7.8691812
22.268408 31.541317 0
38.43417 66.200974 70
60 18.651278 16.196409
0 10.324789 65.839928
0 51.572464 29.944475
16.543844 35.919407 70
36.181049 0 46.838009
27.348091 41.016777 0
60 79.111671 39.621666
0 72.920738 10.862519
0 13.31696 6.7594838
2.211704 40.698093 0
55.939407 0 38.396358
13.819407 30.723717 70
55.078239 80 66.3367
4.3394833 54.333916 0
60 16.566626 49.48336
0 44.052658 14.77372
33.631077 25.554848 0
42.139034 80 67.423843
0.624547 5.7103372 70
42.321552 21.934244 70
5.5739069 68.226624 0
60 17.780134 24.562449
37.151226 63.036304 70
34.322601 8.4544334 0
60 54.543575 37.066944
27.501448 9.4942331 70
0 25.4259 9.7148876
0 26.502979 7.7730374
0 44.389214 4.689785
33.871132 80 1.0229529
33.220615 0 61.813385
60.000004 77.928482 61.433037
20.228409 15.184501 70
0 57.780052 63.94014
34.490807 6.8039351 0
0 70.123215 34.553764
0 51.530479 21.23366
24.706905 4.4234014 0
0.71697247 45.250401 0
60.000004 48.798054 1.0029893
0 57.327431 68.540039
1.8022567 0 32.439133
43.084621 0 2.3775077
60 12.483974 54.819611
60 61.350471 51.365635
60 36.160744 45.766258
0 19.215345 58.431324
0 56.919594 38.567646
0 30.434593 65.980408
0 67.444336 13.637055
57.518814 62.63047 70
60 25.320173 1.3882546
60 36.354229 6.325017
29.615303 0 5.4101286
53.237186 79.999992 22.765465
60 1.3128334 8.8206921
36.915409 60.493015 0
47.507256 14.493128 0
0 37.240303 17.32967
60 13.726446 66.783272
37.335705 8.2787571 0
6.9606938 0 4.2900224
53.671535 79.999992 19.28471
0 73.121033 42.838867
3.934998 0 59.079185
8.1642313 75.479599 0
0 5.5328832 48.936649
60 44.136967 35.652905
50.608173 80 55.899235
38.071278 39.067898 70
6.4855189 0 1.0319829
0 40.307388 38.43256
0 0.048976336 52.035034
7.4125319 0 42.510708
60 32.68372 28.380491
23.545052 64.112389 70
28.956995 71.64119 0
60 27.189863 32.077068
0 23.778294 6.7874804
60 26.077578 13.050138
0 24.994555 31.08079
0 30.82498 18.394642
10.966623 80 21.969986
0 13.186996 4.691083
49.187126 36.527004 70
48.173962 26.466949 0
34.449928 67.722649 70
0 55.557888 14.089483
21.976278 62.555096 70
3.2905698 70.753799 70
55.003139 0 43.842941
25.606152 75.976418 0
22.021936 0 38.811607
0 31.595409 12.848175
48.12114 0 42.097092
0 22.737108 66.086006
28.133099 46.808197 0
60 17.949017 49.196701
53.934418 21.534115 70
39.844864 12.685176 70
13.654049 66.928261 70
0 8.6733694 8.0542021
13.409238 0 62.284397
51.721699 80 5.8781457
60 6.8220196 47.232056
19.666952 0 24.340759
60 0.65119654 60.421238
0 58.264664 16.037333
0 54.129803 6.0273829
29.544701 46.386219 70
16.67387 17.305079 70
26.956371 20.59059 0
0 68.226509 0.98541141
25.556732 80.000008 40.596893
60 39.340504 9.591197
60 17.546093 31.179476
27.547234 63.134434 0
26.08215 0 40.19759
56.71196 0 15.454622
60 59.905651 11.442446
28.77537 67.081306 0
58.718456 7.8903708 70
25.74785 0 15.595551
60 64.267838 4.286458
60 17.890837 59.356945
0 76.343277 11.147621
18.54966 39.575596 70
4.9102345 0 6.3622913
60 57.047935 0.34232804
39.784199 32.039536 0
36.145416 78.466133 70
20.80715 36.43388 0
25.564859 57.984707 0
56.079494 47.798771 0
60 59.926735 3.3956506
60 64.940285 64.713142
1.68168 9.0377464 0
1.7794192 11.81958 0
24.976543 80 66.111015
20.123552 33.523815 0
0 37.697491 59.258099
59.344791 40.772697 70
40.46487 80 37.851936
0 65.881195 63.069065
47.113708 26.807648 70
37.831886 68.004768 70
32.123844 80 28.501171
16.153038 79.999992 61.878216
37.426365 0.61373341 70
50.527084 6.6904864 0
49.829208 0 59.020912
60.000004 76.816208 46.159492
30.653727 61.6721 70
33.80077 66.603249 0
27.989111 44.079159 0
60 26.248844 59.056259
0 59.239235 7.8233347
46.868881 0.15426746 70
5.2906179 0 13.127454
0 0.73903787 32.778801
60 38.027813 30.606993
60.000004 30.594141 31.68796
0 15.744659 14.171352
39.803043 37.281704 70
59.068054 45.692055 70
0 48.417957 0.99544585
7.1060352 64.933548 0
15.034301 37.583824 0
59.999996 39.926514 37.754284
28.063417 80 30.92647
47.985146 0 5.0178676
56.567913 31.499952 70
18.318951 0 11.750098
33.561077 57.281406 0
50.137325 28.19257 70
0 29.518053 17.354231
0 20.482353 61.886639
0 21.731211 44.81702
58.162338 47.330936 70
0 36.601944 47.182529
31.125454 72.609848 70
21.300789 7.846796 70
60 31.535969 54.50946
0.95321959 0 68.088005
3.5641551 34.001213 70
6.8534517 17.586224 70
0.008643589 0 47.268028
0 35.77618 1.2384754
0 69.975166 4.2988758
56.286282 75.384521 0
31.476858 80 8.43888
0 19.493736 18.959326
29.129435 22.198204 0
60 2.9651778 15.675596
4.2883129 67.708992 0
44.139957 80 40.577263
40.120579 0 36.024715
29.33383 0 30.716738
60 21.986111 11.091666
60 17.887346 34.592789
24.811266 4.9761043 70
0 44.456482 19.520578
0 4.1284389 34.00964
60 54.742435 5.8979082
59.617233 25.465174 70
60 38.025963 63.327263
0 77.509308 27.236736
60 31.695679 21.392027
60 22.541611 34.651245
13.095136 46.672722 0
56.944351 0 30.684021
60 62.046379 36.446163
40.670685 34.074284 0
6.5237188 42.3848 0
0 52.865715 36.468636
22.560667 35.47332 0
25.187681 55.889423 70
31.56596 17.151239 70
21.712576 54.967247 70.000008
26.964058 80 69.76104
0 78.492668 5.2793021
12.268528 33.963394 70
19.0919 80 9.0790415
60 50.078228 59.676647
25.799397 72.934166 0
15.368639 0 11.595288
31.942148 0 5.7245135
0 40.257378 19.387701
24.168266 43.414894 70
60 69.400505 52.777679
60 54.728016 18.957027
25.414049 36.221985 0
2.161094 0 28.03504
0 4.2344327 6.6486459
60 74.942245 62.908253
41.886551 5.8609371 70
54.459286 55.746269 0
3.1396463 0 14.942201
0 40.694298 55.972229
4.2657847 0 59.67297
43.45533 27.791908 70
42.564091 80 56.855507
21.356007 80 36.852596
0 56.450356 38.165794
60 44.511276 39.055927
4.2325664 80 11.136788
12.668952 0 41.881332
3.5373294 23.621799 70
0 46.095036 44.558842
33.234474 0 43.520969
43.272243 80 30.074499
21.761847 80 42.325584
34.810673 45.48938 70
1.7260516 6.4544673 70
41.367172 80 53.538342
50.38047 80 69.630089
60 45.999977 28.076286
5.1615815 80 39.421013
60 13.768205 36.412235
55.692932 26.300323 0
47.951397 18.727947 0
27.956841 0 56.648556
0 61.973217 27.168991
48.68095 40.768547 70
6.0521755 44.92308 70
0 41.35416 46.332478
34.697979 0 35.434196
51.010914 0 59.755024
8.7565289 49.621017 70
42.599606 80 48.818653
60 79.475273 54.485863
0 22.328279 60.128807
16.955338 75.147354 0
60.000004 49.510044 45.867268
6.7472739 0 68.506531
3.9310818 80 67.523956
22.562193 62.012154 0
60 38.747639 67.835121
16.129616 80 57.842941
0 76.621078 29.010963
19.166883 80 13.245117
60 61.364021 40.445465
60 15.854246 32.286846
20.218063 23.571882 70
60 71.838112 29.512096
1.3011432 3.1259563 70
3.3337011 80 52.273369
17.594158 0 22.530846
23.048361 18.168798 70
60 1.9152248 33.086819
8.32514 79.999992 21.070673
24.165895 0 48.352497
21.930063 42.21159 0
36.889786 49.440533 0
30.325615 78.539978 70
60 40.762085 47.479469
0 44.683563 11.519902
54.536194 46.045448 0
12.847984 29.755983 0
21.193436 15.91359 70
36.150642 0 54.487705
37.57637 67.197411 70
60 30.718523 23.469244
0 33.423489 30.920759
40.531273 75.049278 0
0 22.561172 33.460712
13.887541 52.673191 70
35.507748 38.564793 0
0 42.152252 17.476793
10.030679 52.660088 70
30.16415 0 8.684411
31.218006 80 22.879126
0 7.7626901 59.428055
22.126919 24.411449 70
59.999996 59.816433 66.698959
0 18.063822 65.419197
60 47.964115 13.226793
39.96101 0 54.368168
34.804737 80 19.868002
40.830776 69.467644 0
0 2.7503991 22.746115
60 66.445534 20.887495
52.598774 0 22.817528
60 1.664072 51.812546
7.5344572 1.8414521 70
56.686443 75.550461 70
17.977018 5.5189176 0
31.042187 56.915707 0
51.622593 16.276384 70
41.209675 32.429356 0
0 70.01088 4.4521503
57.347317 20.815632 70
40.87067 73.271729 0
60 79.472862 16.951817
60.000004 23.048447 26.292994
38.759064 52.093685 70
0 28.607201 18.33807
7.8706384 13.053187 70
1.2812805 11.91422 70
45.146568 22.791307 0
0 20.989952 50.072445
55.452232 80 20.337811
0 78.529503 17.91898
15.658252 76.162247 0
35.959591 80 26.148457
0.89771795 79.999992 26.967848
51.94101 48.528259 0
40.958496 0 20.094681
0 11.097044 17.049681
18.635918 0 5.2955732
34.114952 0 22.259914
29.557644 9.7634068 0
0.71403569 75.473312 0
0 26.796957 51.422798
60 33.129662 28.733074
48.606281 0 62.317654
40.926193 80 15.301549
60.000004 78.271332 6.278307
60 70.571419 21.828966
33.44873 80 43.375393
57.899525 12.145407 0
49.925587 80 18.257603
38.921597 29.309015 0
23.213453 0 60.67783
8.2657108 21.610996 0
0 70.013603 22.323978
15.733475 37.527153 0
58.423275 56.655365 0
60 37.386509 43.152866
51.047398 0 45.359283
42.07999 80 65.740196
59.999996 52.309727 10.068232
60 17.660337 47.354729
0 14.363295 42.53923
50.024136 0 25.06811
37.442959 32.077377 70
7.7180729 35.715157 0
10.237721 0 28.159473
51.039726 1.1926173 0
0 4.6597304 58.575981
0 18.425936 46.406525
21.999315 0 34.942764
49.393097 80 14.266646
44.617859 80 44.455227
27.994812 6.1570597 0
20.19944 27.88493 70
51.779346 56.860703 70
9.7427416 3.940016 70
26.800278 80 41.323101
0 68.99131 61.793514
35.577114 37.666664 0
0 73.486397 11.706666
16.73378 0 48.762905
60 30.570234 11.504681
12.318428 48.440506 70
60 39.6306 41.02248
16.546841 80 65.734756
2.7874167 44.475079 0
17.081203 61.765739 0
60.000004 71.422935 33.124897
0 0.38814923 30.940386
0.95679671 0 33.150383
60 31.846872 47.141029
60 13.596449 3.5881751
0 63.586048 32.757412
37.378757 56.633549 70
16.758659 32.766129 70
0 53.263851 52.77367
0 33.521168 27.600027
0 48.120457 37.161812
0 38.170086 4.8818331
45.06995 80 3.4065683
0 64.766014 14.643201
22.989479 1.7766027 70
22.073118 0 60.781197
0 65.738152 49.780376
4.0403509 38.602966 0
42.288227 10.022737 70
58.234097 0 28.047121
53.373604 0.046231341 70
60 57.580379 30.223375
18.729485 26.450737 0
4.8426895 80 68.477959
60 4.9184785 35.154293
0 41.003071 51.194492
0 65.212975 45.214222
0 44.228466 48.273365
4.2730093 47.487823 69.999992
0 16.358139 61.47155
42.915878 80 60.178715
0 4.812551 69.068703
0 74.18782 20.259953
60 75.826447 57.13036
34.637928 80 13.62111
59.999996 76.300751 63.973389
0 76.851326 34.206078
15.647467 66.988846 0
55.672176 34.619766 70
32.757046 0 16.149948
60 15.54484 30.996855
21.201134 0 67.592278
60 65.557388 63.68449
0 75.384178 10.379616
36.155102 11.178108 0
1.4369457 80 68.433121
12.700948 0 45.145744
0 58.035133 13.806103
60 61.486435 25.518091
31.826241 5.0640321 0
54.449078 69.631439 0
49.503326 0 51.457329
60 0.27100587 12.731602
58.075401 0 7.4964375
39.889393 73.583298 0
0 37.997253 63.543472
35.911804 61.372478 70
0 4.332418 2.5064659
60 40.116714 4.3735099
26.769054 47.929317 0
0 60.490826 53.639381
53.084175 0 55.843128
60 34.577572 55.84354
60 45.937271 68.881981
0 15.021244 1.2845713
26.61968 69.416748 0
0 68.136818 69.854927
18.419327 1.7902852 0
17.878942 80 63.767136
22.41778 0 57.436752
0 76.931404 60.251923
39.67313 44.952629 70
7.9598746 79.999992 47.923035
60 58.578564 69.42971
50.228085 50.017223 0
25.503845 19.499556 70
3.3112693 67.593407 70
50.179214 0 57.11895
30.661018 1.9813374 0
0 20.789787 60.902637
52.374771 21.073162 70
6.3542113 0 12.621331
17.004297 0 18.133856
38.639248 41.371136 0
0 18.90575 10.134444
35.521336 80 24.975763
51.181435 80 63.978493
47.218513 58.064884 0
13.240604 57.631256 0
0 62.962765 29.882351
0 68.502945 59.193256
19.433578 80 11.462642
60 54.526352 59.842365
21.308353 76.602188 0
37.327797 46.00631 0
60 57.235027 16.882622
26.206875 0 60.612003
33.366932 80 6.2307272
60 73.260574 14.351395
12.600617 80 47.227097
10.910774 80 18.248096
58.086258 3.33921 0
0 50.513504 57.211617
60 2.4345481 58.486656
45.697227 80 49.34457
0 19.163355 14.664563
60 70.312332 3.0121331
25.307476 56.763153 70
22.643177 80 43.998447
1.718123 59.650379 70
9.9564276 80 30.362494
42.527699 17.700531 70
59.999996 55.870533 59.421844
19.869848 80 31.445326
4.9116826 76.383743 0
59.999996 77.715942 54.065331
60 41.714291 44.548859
42.402828 76.401543 70
4.1772084 0 48.525295
1.3692963 29.071941 70
22.571257 34.51812 70
55.051933 0 58.577877
27.106174 80 3.9468174
60 7.5907307 32.900585
60 74.231377 13.674521
8.3973169 11.313457 0
54.880611 50.959953 0
16.673708 53.265446 0
53.75985 10.528036 0
0 14.208811 15.798213
44.859447 80 44.638504
49.280663 58.313213 0
0 42.94825 49.641487
25.759531 0 2.8758044
20.495567 80 20.121832
1.5816945 80 56.835602
0 61.276405 10.681478
0 18.641644 3.2103162
0 41.774929 58.628723
5.0494304 80 21.952856
5.3976912 0 56.25861
7.752583 80 21.414856
34.009563 11.772655 70
45.716064 48.549137 0
18.788805 74.303871 70
53.823681 68.063011 70
39.526665 3.1875935 70
0 65.395317 55.29221
49.205757 80 50.182606
45.924675 33.381611 0
0 25.987038 35.496689
0.49501419 14.306814 70
50.273643 24.675783 0
7.4988279 0 0.5055356
30.766209 41.543472 70
8.113801 0 55.589622
45.169182 50.709656 0
56.162178 66.140053 70
60 44.316586 8.8017139
60 53.476433 10.665617
60 64.286751 53.764442
17.438917 80 17.046011
60 43.469112 21.918495
54.173969 78.63047 0
3.1205339 80 52.272331
18.070013 13.97035 0
58.822262 53.454361 70
59.976906 74.85199 0
0 24.886278 5.3464885
54.82365 63.597301 0
0 40.644497 1.6575271
60 69.990456 48.282764
50.376968 30.864229 70
51.999809 0 5.0670762
60 33.349831 65.290451
5.2498584 16.401148 0
46.67078 39.466114 70
60 51.751587 29.332764
0.49620783 0 64.279945
4.5694399 34.9506 70
59.999996 60.723557 3.1028025
51.77409 55.579853 70
40.22533 0 36.011829
25.876051 80 28.580263
0 69.262444 1.9875914
56.32272 37.148102 70
0 57.729195 36.151104
8.4871178 32.967915 70
24.603456 80 38.45929
12.776743 0 47.418018
24.332102 0 69.923386
5.4599028 80 8.8200607
12.785679 0 8.3106956
4.50914 80 40.929821
60 16.358625 48.489441
20.018091 52.131115 70
0 31.034504 46.219269
60.000004 79.449066 31.006811
49.181934 17.744408 0
60 0.13866331 33.485542
60 13.874421 32.35474
43.078156 3.3512831 70
42.711437 78.67028 70
28.493916 32.815983 70
42.622688 4.9901443 70
24.763126 70.272499 0
10.322047 80 23.386433
4.1429701 80 9.0836916
60.000004 14.540946 13.015156
1.8883674 80 67.883453
0 24.897524 60.716183
42.402264 3.4820073 0
20.947273 0 43.883305
0 4.4688244 26.444769
60 14.002278 33.657665
35.424404 0 0.46680391
4.4895616 80 50.992367
40.20475 49.022892 70
17.45842 0 26.53912
18.596369 35.834332 0
46.451351 0 13.154544
25.040115 55.800598 70.000008
38.603268 59.730808 70
60 17.357664 14.715281
57.316536 80 60.865833
0 3.9782038 51.698906
48.451866 72.593407 0
0.82265854 56.864716 70
0 34.277222 50.788326
0 10.731334 29.968067
14.545324 80 39.841476
25.656744 27.380089 0
60 56.833439 4.1575899
0 1.2090819 59.78516
49.230816 53.467854 0
26.544449 0 53.09647
0 10.402451 24.216246
10.855633 33.815811 70
0 72.303406 54.496059
10.670947 40.150517 70
60 16.544258 40.552464
39.902576 30.023121 0
42.844185 21.147354 70.000008
59.21944 0 52.67152
9.6338224 80 18.73806
0 59.819088 69.661041
0 58.93071 16.917118
56.393787 80 34.929665
41.55933 53.561253 70
0 76.243645 18.915075
54.444645 0 11.389037
0 5.9937177 45.452869
60 4.0834951 41.05714
19.991032 6.1351795 0
0 48.256062 5.6455145
1.5653515 40.681156 70
0 60.884609 66.661682
6.6496363 64.855247 70
0 22.008142 9.1947069
4.3734727 24.46965 0
39.037739 80 59.760433
60 68.37719 48.044922
59.999996 56.126007 64.03405
60 63.366077 20.247623
2.0333364 0 41.311878
24.103636 12.740411 70
60.000004 37.319305 55.537167
36.53965 0 48.254002
52.805351 68.597984 70
10.627062 25.537853 70
60 66.829018 15.550636
46.799732 0 54.984367
29.385687 80 57.225388
59.999996 72.126472 38.905079
0 49.802753 23.838108
51.378296 0 27.365326
25.642899 80 19.433601
30.725307 65.037903 70
5.4918413 73.881119 0
60 52.299137 23.973202
10.554238 52.144451 70
23.816795 80 38.573517
0 28.882435 48.715504
20.638201 0 28.307369
1.3187547 0 25.481056
0 63.342026 47.901295
40.443443 11.667294 70
35.051414 80 31.363905
26.592527 63.202221 70
0 26.50024 22.967018
13.87883 0 1.6922325
14.381418 22.128811 70
0 76.977325 46.131748
51.407467 53.699902 70
60 49.729725 64.107056
59.999996 63.101635 8.7474747
30.849218 80 54.783909
0 78.393021 54.806862
2.7550256 1.6173786 70
41.760784 80 69.195068
0 14.760741 11.688536
42.945084 44.266258 0
44.358654 0 37.056698
