# .PCD v0.7 - Point Cloud Data file format
VERSION 0.7
FIELDS x y z
SIZE 4 4 4
TYPE F F F
COUNT 1 1 1
WIDTH 1778
HEIGHT 1
VIEWPOINT 0 0 0 1 0 0 0
POINTS 1778
DATA ascii
47.398277 17.060118 70.471443
0 75.706833 61.841286
0 56.116394 16.612787
15.270291 15.063614 69.318764
38.034592 91.954689 32.882809
49.012501 51.84927 90.556969
0 90.292747 41.261105
4.0950823 58.765179 94.549881
60 69.390129 64.144905
55.038212 101.43629 38.357014
44.45443 81.692574 26.957973
12.268351 20.926344 24.376286
60 68.087845 57.243469
0 70.047882 36.878136
56.63776 49.2897 89.079208
57.106812 24.796448 17.673073
60 77.705894 34.353497
41.371948 32.635307 4.0957713
26.202543 3.0353727 55.364361
36.290237 57.076744 12.746017
0 44.066051 11.389256
35.477859 62.520714 96.718132
6.9970751 25.944286 75.600723
0 45.370358 63.779995
30.975679 81.766045 27.000389
49.127991 85.374809 72.74826
0 43.365963 47.087982
18.831621 17.211912 30.809874
40.803337 102.37405 43.304726
11.95681 101.27252 45.21262
50.071239 32.16872 4.9039197
59.999996 80.136314 48.883919
0 53.454788 43.349789
49.101425 11.874172 40.055111
0 84.523499 52.398376
60 55.925838 55.149342
10.621088 39.238258 2.4469612
48.613426 96.843712 52.883537
13.322376 4.8471937 52.226192
14.938451 8.7039757 45.546051
0 45.965988 70.773109
33.965202 27.060076 13.752353
0 52.574608 59.423225
60 43.135471 31.376844
40.513065 52.269585 9.9705992
0 38.869656 32.832996
60 59.004314 78.688988
24.600191 77.463562 24.516356
54.241707 20.043381 25.905626
0 60.513813 94.260925
32.180908 78.202736 85.170662
31.816893 16.334333 32.329884
0 7.7834001 47.580475
20.778801 27.274336 13.381245
0 73.753601 37.072838
60 22.404486 57.337811
57.838623 13.137265 37.867367
60 53.627773 34.681767
32.378826 17.66651 30.022488
0 15.430438 55.853882
60 77.056427 33.848969
60 26.597157 60.799709
60 49.804291 74.090462
0 24.361681 21.981888
60 15.177946 40.827496
60 49.790035 28.804192
0 45.420284 66.351479
0.34318057 73.584557 93.169579
16.475973 10.228908 42.904793
39.201294 96.710777 53.113785
0 80.336403 34.350006
60 74.322411 59.013023
60.000004 46.591057 50.06847
10.199561 26.1061 75.694145
17.286865 11.496185 40.709801
40.63089 33.813469 80.143997
0 63.208069 49.317238
59.999996 39.654247 22.385727
0 82.854576 34.894714
19.106009 79.815376 82.37748
34.046009 53.456417 10.655817
0 49.792339 42.932701
0 43.973667 17.962812
59.377731 90.280655 31.916306
60 52.640671 48.347076
53.765224 47.63921 88.126289
33.004852 78.050835 85.433769
0 78.042931 68.809853
60 51.117882 58.635929
9.5473175 77.651604 86.125252
32.352898 29.84955 8.9208403
34.553932 66.826553 18.375071
37.108715 48.340202 88.531013
0 54.914085 32.884827
0.86061847 17.682779 29.994308
56.312813 6.8388653 48.776516
60.000004 49.352158 42.212921
0 9.7436209 44.812119
0 81.55262 53.216003
50.530956 79.151497 83.527367
43.383198 0.92094922 59.026649
42.988899 74.124916 92.23365
1.4993942 34.688644 80.649277
10.176015 99.750023 37.383442
60 64.138374 65.93885
34.095631 1.2137522 58.519501
44.664391 63.382004 16.386356
52.696499 87.25489 69.491875
15.664816 17.313616 70.617805
41.332119 4.5105267 52.809319
17.082029 49.190044 8.1926279
35.524342 8.1719637 46.467522
9.6006699 17.223875 70.565987
29.638102 90.386154 64.068359
49.460201 89.22966 66.071465
60 75.238487 87.690201
0 77.716225 38.924351
28.909693 77.132843 24.325407
22.872837 62.049831 15.617229
33.896713 67.32692 18.66396
56.049042 103.20136 41.871765
23.194324 93.723442 33.903996
0 19.290207 59.412315
42.51033 86.34053 71.075584
57.630001 94.71846 56.564579
0 85.317017 51.330311
53.701584 78.84581 84.056824
3.7673337 38.216114 1.8568248
0 76.317932 86.94931
0 42.379929 29.10976
60 1.6044239 60.490314
23.234865 78.866028 25.326065
60 21.238863 34.235031
0 46.819901 33.645763
56.788975 21.29022 23.746037
55.379086 41.429501 3.7120752
60 5.3353691 57.36253
60 16.89912 50.840519
19.996521 67.233276 18.60989
60 40.204067 7.0283589
46.365833 80.120171 81.849564
5.4994688 49.578831 89.246132
60 46.456837 61.859463
60 57.86451 28.327301
0 58.583664 19.281252
21.407602 100.03846 47.350082
21.988987 75.674637 23.483515
60 28.549974 17.316574
31.227795 45.3484 5.9746528
30.547331 50.564522 89.815224
41.762611 54.388874 11.194173
0 47.462761 46.399616
41.984459 67.15522 18.564821
58.001713 92.900848 33.42907
60 89.602165 38.94239
31.623026 46.503204 6.6413794
0 82.610352 57.017513
17.011496 66.034248 17.917633
60 25.813417 63.898582
0 92.919159 47.034061
0 21.101204 53.666492
60 76.827515 85.715324
55.141323 38.01469 82.569572
60 17.294607 30.73333
60.000004 34.758839 26.146967
45.949963 72.163429 21.456312
17.730541 32.217865 4.8187966
60 18.400295 33.449558
60 54.563721 24.297192
25.206306 92.051025 61.184723
5.4173436 33.330708 2.8912969
12.3367 94.647888 56.686817
49.732025 49.05489 8.1145954
0 39.192497 41.080868
58.457691 98.929924 36.909962
60 40.762131 39.511742
42.666054 12.131346 39.609673
0 71.408226 71.157585
38.060528 36.418198 0.81879711
23.437822 1.4561789 61.462505
52.834633 70.275276 20.366192
60.000004 43.325089 71.397362
60 52.002415 39.475895
9.9172354 98.621201 36.73172
38.252769 80.826126 80.626808
60 55.170738 82.314087
35.022728 12.140151 67.630898
0 55.953945 70.98381
60 39.374367 46.587425
31.194159 95.958252 54.417202
18.578934 20.894751 24.431011
59.999996 43.028896 58.986763
18.408661 72.619827 94.840546
0 12.434676 66.947464
54.678646 85.566277 72.416634
0 21.063046 40.603844
45.200134 96.070129 54.223419
43.066235 69.221748 100.58698
50.87756 5.091908 63.561592
56.123825 8.2800961 65.402298
60 22.916574 49.591293
47.316994 4.0912681 53.5355
0 90.430908 58.340031
23.015606 2.6416273 62.146927
0 30.579807 76.75621
22.113064 63.759201 16.604136
46.877075 84.458038 28.554613
57.645512 47.074459 6.9711928
2.7166922 86.979279 30.010252
17.957958 49.012737 88.919296
0 51.949356 56.10585
34.892597 70.883034 97.848755
5.9742765 17.017387 31.146799
31.081289 73.274345 93.706879
0 47.81163 66.618385
60 40.716503 42.093307
26.612621 31.626677 5.8427668
60 29.114777 75.569214
0.012810447 87.614334 68.869301
0 48.154297 24.442909
4.4570012 79.591667 82.764954
60 35.109703 2.5916386
17.347263 58.781372 94.559227
55.847271 57.349918 93.732773
55.667931 4.8631444 52.198566
45.570183 25.402832 75.288109
0 65.614853 56.906536
60 40.540619 5.003284
60.000004 90.781219 37.9991
2.9491603 88.825325 66.771797
57.394093 49.083134 8.1309013
0 40.237843 27.26507
15.552431 0.26813415 60.157356
0 32.672176 7.4226389
0 24.80398 23.265167
60 61.155056 71.38884
31.085339 61.160366 15.103697
3.0768871 99.534386 48.223164
10.113292 71.577065 96.646652
25.782288 54.405369 11.203695
46.444691 99.886116 47.613941
24.816914 39.084534 83.187248
0.46099663 18.798565 71.475136
0 62.562111 55.438797
14.10005 48.462158 7.7723823
37.697205 101.90434 38.627239
0 43.361607 25.599421
0 84.15876 49.336109
46.508537 48.158699 88.426216
60 96.658379 41.6465
32.828716 8.2810841 65.402863
45.051418 9.2308235 44.633526
60 70.537239 69.063766
9.8919373 55.939777 92.918633
44.991398 99.373482 48.501854
36.247456 10.48611 42.459305
60 39.186466 38.044746
22.108698 35.220192 0.12712722
60 69.105934 24.340113
60 23.359375 54.411198
60 5.6975632 57.837296
0 73.511871 73.397537
49.456764 30.424213 78.18721
0 27.003754 49.198105
60 69.659142 24.538351
60.000004 92.037315 58.402748
8.6988726 24.01932 19.019096
0 42.962994 65.047737
44.24564 91.49514 62.147533
30.160582 3.834178 62.835445
30.931927 101.59225 44.658833
41.58815 67.618057 99.661095
21.312428 29.891989 8.8473349
60 41.989697 56.096394
52.663116 97.650566 51.486027
60 59.489937 47.626431
29.702408 89.155807 66.199387
26.881269 102.44772 38.94096
44.518089 73.658401 93.041679
0 56.046089 22.654991
11.288031 3.2788548 62.514828
15.009325 76.290268 23.838947
60 44.971241 51.002102
60 23.544815 28.770521
47.967335 43.614498 4.9735818
60.000004 65.751976 48.064816
0 38.295895 42.060177
52.678261 83.094955 76.697083
35.336494 22.108845 22.328138
60 48.165451 32.079525
60 57.598122 43.080524
56.218952 81.471321 79.5093
10.941554 5.1303639 51.735729
0 64.05101 44.480965
18.541235 95.960815 54.41275
25.054701 1.5063506 58.012703
41.415371 25.003334 75.057457
0 40.053471 10.520658
29.203535 91.282013 32.494438
0 56.82304 44.224384
2.1049044 88.780983 31.050467
5.9022703 29.430901 9.6459627
3.841702 52.893383 10.33075
0 16.020374 34.420536
0 74.07045 25.57023
11.234459 51.875206 9.7429047
60 30.35144 62.393162
60 86.49926 53.013988
0 53.187138 77.689964
60 90.870041 51.897369
0 20.604708 69.206367
60 101.46086 41.26474
0 74.8452 27.368111
47.750511 28.968861 10.446241
51.241535 73.50592 22.231405
54.651691 82.703232 27.541475
59.01487 60.360462 14.64187
60 31.726776 52.840092
60 46.978977 61.843315
60 34.574036 6.2206006
60 50.610142 12.242042
19.138441 95.885399 54.543392
0 35.309521 56.453384
60 91.18222 59.662487
59.012424 97.468628 51.801151
10.1863 31.732166 5.6600547
0 99.934731 42.230251
6.5327377 67.411896 18.713018
0 41.384796 66.406151
7.6673436 82.789078 77.226891
60 42.544685 6.8119454
0 52.091484 52.262474
0 92.848076 45.054207
0 83.594391 54.66032
57.786236 33.484428 2.6250443
40.013229 75.982834 89.015648
8.8205442 19.804646 72.056
51.56443 55.414024 92.615082
0.29903054 7.5349016 64.972061
25.086311 33.825996 2.0334322
4.9439335 40.954155 84.266678
31.855413 3.6194358 54.352734
60 73.183472 61.092003
0 60.073288 60.012924
49.246582 67.142906 18.557714
39.939129 11.475147 40.746243
3.7959945 24.033628 74.497604
45.404987 31.992544 5.2090664
0 77.38781 50.20694
23.465065 13.971018 68.68795
60 53.925186 47.488529
60 63.565681 36.678658
36.718052 94.94902 56.165249
60 32.225761 7.5370889
49.767136 89.003738 66.462784
50.989403 38.655952 82.939804
60 54.507607 38.059124
60 26.618052 51.390354
34.479702 63.788338 16.620955
9.3928137 92.413727 33.147835
47.101673 99.79039 47.779751
0 29.779274 44.011688
55.895306 42.778778 85.320122
47.293728 74.988342 23.08728
60 60.51321 29.624229
60 53.111027 20.538609
0 69.516479 24.492441
0 68.196472 59.540028
0 85.082924 57.1171
33.050213 89.332932 31.369137
0 71.828529 28.893888
50.59478 43.197052 4.7325692
15.911036 77.746078 85.961617
0.50749183 7.6690345 65.0495
22.097204 94.302864 57.284416
60 21.089886 66.387276
0 36.365864 19.783587
46.428337 48.40728 88.56974
60 96.812325 40.066261
0 52.759029 49.439438
60.000004 55.706936 80.467453
60 25.332247 28.589474
18.327055 25.049555 17.234676
31.253859 94.251549 57.37331
23.661375 30.772738 7.3218331
6.3564706 29.243061 77.505272
0 35.22654 80.396828
43.295727 89.210876 66.103989
0 49.888966 16.27396
12.93299 17.61458 30.112432
27.181696 79.933052 82.173668
5.2070775 84.090477 74.972778
11.843454 13.533268 68.435219
50.230026 21.970881 73.306679
45.340366 32.277199 4.7160335
60 26.916267 41.418507
45.489643 74.363876 91.819763
60 67.857529 66.135231
53.907154 14.363951 35.742687
38.754974 79.204445 25.52145
60 88.38015 67.389
46.011002 6.294488 64.255905
36.96199 3.6187019 62.711037
44.212074 101.75348 44.37957
42.237045 51.940052 9.7803431
59.39352 38.540356 2.0440261
0 35.433983 57.16066
19.334824 71.267448 97.182922
25.831161 27.888895 12.316794
11.305328 91.202003 32.448242
6.0956678 100.96266 45.749313
0 25.683468 49.039528
13.159192 81.79966 27.019796
5.9968843 30.947767 7.0186753
33.947193 87.789078 68.56662
60 34.640606 64.982674
0 64.030724 37.605289
53.638283 73.023346 94.141617
16.943092 43.433487 85.69812
0 63.550228 58.015251
60.000004 82.333214 56.093418
60 52.283588 39.911339
17.520517 68.44355 100.13769
0 4.967515 56.19986
60 12.664344 53.46011
24.966179 45.594311 86.945671
20.12499 15.63514 33.54092
38.437737 10.368404 66.607986
55.718861 14.600683 35.332653
19.04266 36.202168 0.69407296
60 8.2228918 54.461582
53.184536 59.674488 95.074867
60.000004 65.955566 87.847252
0.67716122 15.550529 69.599884
45.285107 67.514847 99.601501
49.083221 66.50238 18.187904
60.000004 35.518761 2.1879745
60 82.037132 56.262779
11.372691 15.579935 33.636539
35.139694 43.432457 4.8684807
60 17.99275 49.108208
41.216099 39.764244 83.579674
60 28.005724 18.188374
9.7842255 92.357597 60.653721
0 54.406403 74.448006
24.911568 82.942001 76.962006
20.665079 67.954002 99.855042
0 38.893532 37.169567
19.036385 87.081726 30.069397
60 62.658676 56.30302
0 92.712318 46.414684
28.457821 39.491589 2.5932205
7.1400871 6.3979449 64.315636
29.360111 54.737194 11.395275
22.850174 44.927338 5.7315526
0 74.940048 74.432289
14.942501 46.146595 87.264526
15.595724 25.792221 15.94834
0 52.916965 76.195984
60 50.39093 64.756744
29.598486 7.1526833 48.232967
10.690887 27.08358 13.711644
36.873627 2.4135525 62.015247
39.608025 26.773203 14.24923
9.3883972 11.206313 67.091751
14.988163 77.372658 24.463867
0 28.007202 16.288624
4.8274031 0.36565286 59.988453
0 84.396294 65.948074
0 34.771942 57.550522
16.854939 28.186317 11.801644
17.802946 73.299332 93.663605
51.429146 78.049294 24.854525
36.253662 73.205589 22.058006
60 56.287418 41.604538
0 62.929249 19.340019
31.228662 36.215302 0.70165461
49.813744 47.513691 88.053825
48.767258 85.519928 29.167692
47.539661 43.583305 85.784615
55.244869 33.106297 79.73571
3.5794742 85.085144 28.916674
0 79.214264 74.486382
0 33.787186 30.540779
0 50.398319 75.026093
32.882427 74.441284 22.771437
60 40.522869 51.969147
0 81.742691 56.704025
50.211121 75.537979 23.404613
20.747169 90.648338 63.614235
0 62.053196 36.05653
36.222614 20.776354 24.636078
12.297919 78.57515 84.525627
6.4529686 24.605122 18.004457
60.000004 72.36805 78.775192
51.80014 80.92057 80.463234
4.2640228 77.931221 85.64093
24.551954 24.191713 74.588875
18.676472 34.383621 80.473175
60 54.235096 79.960159
47.156895 102.94212 42.320782
0 73.25132 62.358818
3.3101125 45.473282 6.0467544
55.372532 66.413849 18.136795
0 67.391228 36.969761
51.139977 46.430225 6.5992451
26.361502 101.64425 44.568771
59.999996 51.523155 52.142262
0 33.285004 37.325108
35.359814 6.3395219 49.641407
54.046288 94.006447 57.797832
0 46.664597 10.855842
60 24.654604 27.135321
0 75.312569 82.055801
40.063652 9.7449064 66.248009
0 20.342697 58.86116
30.314863 100.4246 37.772911
26.173962 78.638168 25.19451
9.3192425 28.56801 77.115532
0 21.29739 62.488056
0 42.506748 34.451782
56.872169 72.571854 94.923637
57.433823 33.139816 3.2219319
40.01804 72.138451 95.674309
46.671867 63.812172 16.634716
0 42.340847 13.070031
3.4432395 45.540436 6.0855236
0 45.647266 22.913366
60 65.67511 45.323502
0 34.087101 60.707207
17.810081 89.127937 31.250784
0 29.382881 64.035866
60 35.639374 61.45578
60 16.439869 49.960289
55.061047 40.311974 3.0668688
29.945803 76.75605 87.676392
0 61.845856 78.277222
55.649509 94.557114 34.385323
3.6978686 53.986809 91.791077
22.055153 70.749146 20.639782
46.208908 50.338333 8.8555918
38.921707 66.868065 99.228081
0 52.594872 17.354326
51.68684 74.591156 91.426102
16.748798 25.862701 15.826265
37.596409 91.251015 32.47654
28.312265 91.501251 32.621017
34.547039 77.223282 86.867126
46.97834 97.737022 51.336281
44.336449 90.610718 63.679398
17.790266 58.689728 13.67727
0 57.500999 34.156597
60 80.024857 37.130489
39.471802 53.524834 91.524361
1.12201 58.967365 13.837566
52.090866 91.738716 61.725658
60 42.352177 19.696758
42.930412 20.690639 72.567528
6.5983901 15.418125 33.916805
37.553898 26.544584 75.947304
60 11.668477 44.720482
8.0766134 73.261757 22.090439
60 62.248695 24.51762
60 19.54677 60.278015
60 21.45277 51.722481
18.818642 49.914688 89.440041
60 20.095861 39.865788
52.353836 0.4867397 60.902802
0 64.708839 91.434319
17.264248 12.365444 39.204205
60 76.796371 34.492714
46.707081 94.521011 56.90657
0 54.806759 80.733452
47.742016 35.298653 81.001465
60 29.725178 41.320904
13.634162 24.753059 74.912964
0 63.617081 45.212849
0 77.612907 36.933403
19.810865 89.842934 31.663588
0 52.321587 18.014099
60 36.416958 60.361107
53.991947 75.19249 90.38456
60 38.581165 58.740562
0 53.319099 64.500336
22.431494 57.943092 13.246202
13.2488 85.408348 72.690178
44.453594 98.624161 49.799717
34.332993 92.990639 59.557251
51.616798 45.227634 86.733963
1.621523 75.011757 23.1008
0 65.414841 35.881416
0 44.356071 40.459652
35.825317 36.115566 81.473114
60 67.969833 47.132057
0 69.041351 95.658127
38.455765 25.882759 75.565201
3.4735913 47.914143 7.4559846
0 43.503883 28.760714
48.620281 75.58062 23.429235
0 21.775112 43.575752
31.962143 29.285919 77.530014
27.120815 74.339958 91.861191
44.275448 87.311424 30.202015
48.780548 23.915819 74.429581
47.489346 59.748581 95.117645
12.782853 10.912337 41.721058
49.302944 43.575462 85.780083
53.703957 46.688206 6.7481885
59.999996 37.738232 35.521362
0 42.675499 40.576565
7.08916 85.5233 72.491074
52.254845 71.319839 97.092194
52.041641 85.978699 29.432568
55.234802 8.8504171 45.292408
15.677298 45.135567 5.8517733
51.24865 84.397629 74.440796
60 67.913116 96.765099
12.663255 103.14984 39.346333
45.103539 86.170532 71.370033
18.560125 85.438988 29.120968
0 40.127602 54.787498
60 47.051056 27.108646
7.8945684 88.7705 66.86676
0 44.461494 9.7080526
48.484234 93.116699 59.338924
42.0546 102.43464 38.933411
37.57053 22.107292 22.330826
60.000004 65.561249 57.85363
0 49.38596 64.718483
0 54.095936 89.432739
25.655191 17.259382 30.727652
54.684986 83.033684 27.732262
60 50.388512 9.9357214
52.861237 62.576157 15.921103
42.06258 29.348667 9.7883959
2.4913232 18.299341 28.926392
57.354618 29.105703 77.425964
0 53.256695 80.665863
58.564495 5.7261701 63.927788
23.71913 76.952881 87.335472
12.411614 57.599678 93.876976
48.257671 3.815604 62.824722
44.446594 43.247578 4.7617421
60.000004 19.928946 26.804182
0 97.504646 39.16082
60 44.844135 20.820684
52.499039 78.142082 85.275719
15.960975 26.86878 76.134476
55.178581 32.726101 79.516205
33.460625 21.993261 73.319595
7.7233377 34.186836 1.4084437
60 33.888191 30.684687
31.781326 51.744072 9.6671963
0 39.472355 40.429775
15.476178 85.307007 29.044765
0 17.03677 67.020432
33.87801 64.110939 16.807211
57.880642 80.137863 81.818932
0 55.765419 52.733311
40.391582 33.205212 79.792816
21.860275 95.715446 35.054081
22.177858 52.537788 90.954491
57.088551 22.765963 21.189976
38.594246 97.154762 35.885071
39.785236 45.04924 5.8019314
0 89.606232 38.025524
45.245155 10.526034 66.69899
55.556244 57.43869 12.954986
8.4410582 87.692535 30.42205
17.017405 20.153648 25.714636
0 46.280407 15.142518
30.466967 50.419521 89.731506
39.844986 42.873386 85.374741
30.27076 14.869845 34.866451
11.946399 70.227562 98.98407
9.2987394 45.913326 87.129852
17.758331 71.976479 21.348383
60.000004 41.840752 30.476309
51.882317 92.478233 60.444756
45.12141 25.444107 75.311943
26.57789 69.66581 99.957047
60 12.611375 49.362366
0.12907302 86.019135 29.455914
7.7048616 34.287956 1.2332942
60 54.182495 55.335121
60 75.442818 64.534111
18.800566 68.297028 100.05309
49.449646 16.077929 32.773987
35.725014 30.452044 78.203278
40.560902 4.635128 52.593502
44.221546 93.44548 58.769455
5.1371293 7.8234878 47.071098
13.961164 94.576126 56.811111
60 34.589466 54.754822
30.018198 86.783585 70.308182
11.595705 31.108124 78.582062
11.730001 9.4121523 66.055885
29.291393 13.801039 36.717678
0 37.451805 53.474083
10.164842 101.40243 44.987614
56.020416 7.2425666 48.077286
25.182825 29.853041 8.9147959
35.840927 3.1958492 62.466908
47.186176 20.308849 72.347099
19.828278 46.137184 6.4300566
32.824982 50.839214 89.973816
0 23.008913 28.929327
0 54.667736 48.389267
0 55.32085 73.968216
44.199463 82.47821 77.76532
56.211895 49.869083 8.5846701
47.428608 4.3294244 53.122997
28.206461 71.261765 97.19278
60 50.400452 50.966259
56.376945 65.763672 17.761414
0 39.697418 47.805267
33.830544 22.544161 73.637657
60 59.311722 28.190048
12.83183 13.437988 37.346504
11.513947 32.129139 79.171547
48.86919 30.710476 7.4296732
6.6367197 66.613304 99.080994
33.939651 10.570189 66.72448
47.610966 44.525551 5.4995799
16.170292 15.134107 34.408737
26.076468 75.869064 23.595766
13.149691 99.170586 48.853275
60 68.560638 68.669281
60 68.09079 73.159996
19.81591 14.309533 68.883392
32.93174 13.966589 36.430939
26.004646 21.996178 73.321281
6.0333157 68.064316 19.089695
54.018227 24.208624 74.59864
6.4585948 35.601624 81.176392
30.18272 9.5196753 66.117966
57.784321 4.13588 53.458225
20.783657 99.641899 48.036942
52.7066 28.541885 11.185783
10.830156 81.586182 79.310364
10.292097 25.426327 75.301674
9.1239777 85.189598 73.069054
0.82924765 28.816936 10.70938
0 35.548367 8.5405426
60 24.976162 52.20874
0 75.890442 58.864613
51.736275 26.558998 14.620244
0 44.08754 46.103836
0 77.530533 42.570015
0 19.156069 36.800846
60 63.375969 39.236389
0 59.121513 68.91198
35.871956 9.5551567 44.071762
43.910728 93.879944 33.994354
60 56.928036 48.666542
39.472649 75.307991 23.271832
29.550215 11.025967 66.987625
0 41.210369 12.793537
60 16.826174 60.34515
15.340284 32.057922 5.0958281
54.27058 19.777979 26.365314
37.681885 5.2218518 51.577267
10.848845 82.395622 77.908371
3.1582606 73.938362 92.556763
60 70.361504 34.255161
0 67.440186 42.527466
0 40.721489 52.170155
46.36541 100.93282 45.801006
60 83.430458 58.381298
45.394615 73.905716 92.613312
60 77.39431 28.157495
31.254534 31.858692 5.4409056
54.900017 14.21357 36.003155
60 14.661577 50.823021
0 32.556068 20.553291
52.457176 13.706841 36.880836
52.373741 76.032768 88.929153
9.3714743 75.366913 23.305851
60 66.604576 22.34576
9.0482407 6.1837387 49.911232
0 74.152084 41.752792
36.096874 71.940727 96.016785
11.888401 17.813513 29.767872
58.826359 38.621784 82.920082
57.805206 52.386497 90.867142
23.584335 104.09729 40.319977
59.691151 75.27533 23.252975
60.000004 43.421677 37.558968
50.897465 19.665071 26.560877
8.2644949 18.66095 28.300068
39.215813 43.459293 85.713013
60 60.744877 66.832993
26.318052 22.741344 73.751503
39.360638 36.667294 81.791656
28.097118 32.501881 4.3268695
53.847061 18.727667 71.434204
60 69.033066 55.639351
8.5878429 11.762127 40.24918
60 27.543669 63.901661
44.536949 22.421873 21.785955
2.1798849 3.9245341 62.887611
60 70.912476 42.166897
60 59.111176 81.656662
38.853649 97.023582 52.571995
60 34.909878 51.052383
38.535011 22.423244 21.783583
19.129076 20.691914 24.782333
44.734203 91.358627 32.53867
0 73.771088 61.139591
19.473928 87.536011 30.33168
55.669144 1.7119313 57.656628
41.355492 53.263039 10.544171
34.162083 86.984947 30.013523
0.17735383 81.064056 26.595097
60 52.905296 28.084007
38.697094 93.693832 58.339302
32.471893 4.4953575 63.217178
60 34.49638 65.312531
38.642597 18.117111 29.242022
0 50.515434 63.384388
0 79.726517 66.127327
0 35.213745 76.578125
60 25.199665 36.838051
0 44.329529 58.627098
42.016689 104.2597 40.03867
0.2814424 20.965351 72.726135
60.000004 93.730087 49.686874
60 65.395699 77.224571
0 44.377617 9.3733702
35.825653 60.867081 95.763405
59.999996 95.743996 44.951939
50.566017 83.686424 75.67263
60 21.271315 35.614159
60 73.397125 29.355991
46.73003 13.701698 68.532455
60 25.210642 49.31591
0 49.551159 26.417599
5.7924852 83.785133 28.166113
10.124327 23.259155 20.335741
0 25.405128 58.40844
60 92.788322 45.997276
0 72.61467 61.366013
59.591534 29.762056 77.804909
40.788475 96.504715 53.470699
6.7636585 40.120487 83.785355
24.604879 3.9375818 62.895145
39.766098 102.87573 42.435768
43.433044 84.882927 28.799923
46.775398 103.94106 39.803139
0 30.536283 63.563511
0 71.451881 37.034996
26.204039 102.36356 43.322887
53.574898 78.440712 84.758476
20.289303 38.261974 1.8833015
31.870689 5.508853 51.08017
20.39481 92.281174 33.071304
0 17.798811 54.493904
13.3616 57.061924 12.73746
0.2117617 32.250927 4.7615356
59.999996 63.384384 90.906082
54.55648 59.107986 94.747795
2.5649881 74.02433 92.407867
21.782854 26.558094 14.621809
2.9964223 5.1417513 51.716003
54.283203 4.8090849 52.292202
0 21.771835 61.592159
33.700783 60.605335 14.783248
60 26.458109 30.796356
47.171207 76.763794 24.112337
20.183207 93.863289 33.984737
46.614166 70.863693 20.705915
20.777176 65.768082 98.593002
60 35.789722 49.716671
60 44.627995 23.003016
59.999996 31.5294 21.710335
59.999996 39.968864 45.037201
2.9587677 14.391576 35.694839
19.144983 94.844055 56.347042
60 72.869812 77.437149
28.284893 103.81336 39.729416
20.25671 89.878288 64.948006
25.764481 68.2855 19.21739
14.676209 24.210796 18.68745
52.345535 48.19503 88.447189
60 76.142029 81.950394
0 94.832497 44.643284
25.579725 53.468208 91.491661
44.077976 91.016685 62.976254
0 17.685123 59.741447
1.0404503 57.246426 93.673019
46.742229 51.805916 90.531937
60 80.339462 38.216057
0 50.507824 58.866909
54.830261 22.345127 73.522743
8.7429895 14.620816 69.06311
60 27.436508 33.551487
54.615681 22.887941 73.836136
59.069305 78.617424 84.4524
0 78.569809 30.627363
0 55.710728 56.287201
60 85.528458 42.249294
29.155428 57.82383 94.006393
21.026243 18.093819 29.282364
60 37.240608 7.1105661
51.83469 64.608421 97.92347
60 61.683212 43.220634
46.226562 21.095304 72.801155
52.6054 60.633667 14.799606
0 29.602749 52.057983
60 59.655857 85.328407
60 14.179193 53.116669
60 66.888588 72.215927
12.658836 47.761745 7.3679986
0 23.8666 68.848793
37.788811 94.444832 57.038521
26.143787 21.22191 23.864353
60 31.052261 30.609755
60 94.844803 46.699028
60 54.71347 44.777996
60 29.232409 53.723114
24.979931 15.797494 69.74247
60 30.07892 48.038761
53.515667 1.5518786 57.933849
60 46.517757 12.020237
0 96.134712 40.457703
13.132662 62.892941 96.933037
28.289831 20.113153 72.234116
13.514119 9.4192839 44.307102
0 26.045362 47.11187
45.39386 76.660454 87.841972
6.7229176 24.093351 74.532082
8.3796892 45.006516 86.606308
51.546333 39.846146 83.626961
0 17.641554 30.482916
60 31.833679 55.93576
24.436625 64.045166 16.769236
59.999996 59.846836 57.807167
43.797855 15.43912 33.880436
0 65.009605 63.524265
0 44.515793 49.903667
27.026066 35.243359 0.14050302
24.973295 24.997351 17.325096
51.239666 67.337883 18.670288
60 68.761581 20.136087
4.7135897 28.05839 12.023222
60 59.324661 63.790054
59.999996 87.624756 52.556847
60 35.774006 3.5771081
48.145573 25.421701 16.590099
30.216789 88.372498 30.814631
0 45.152523 11.798256
36.392387 88.905075 66.633667
60 48.584541 68.718521
38.141609 79.480354 82.957748
0 36.250977 66.503387
0 29.545227 38.417194
52.713802 42.403934 4.2746634
24.99453 6.5953441 64.429604
6.9423475 19.941298 72.134895
0 4.5485139 59.05431
1.5611942 91.133125 62.77457
5.9497509 61.362366 96.049362
59.239674 2.1153839 61.843098
60 44.48312 83.873421
56.273911 48.400063 88.565567
5.9625397 27.251188 76.355263
10.182492 82.743736 77.30542
60 79.009155 32.444809
18.852114 11.942007 39.937614
51.804165 93.76873 33.930149
9.7423153 22.169159 22.223669
33.47551 46.917198 6.8803983
30.142925 39.115982 2.3763635
0 32.556347 44.57346
60 34.419941 36.883831
60 61.458641 65.601311
3.8466275 60.241692 95.402336
42.574562 15.537846 33.709442
26.826937 13.701967 36.889275
11.923879 30.001293 8.6580133
2.3420198 56.89135 12.638977
11.210657 47.233158 87.891861
55.84549 3.1043484 55.244892
10.112206 42.044758 4.0672927
42.894161 28.593933 11.095634
20.248915 20.67985 24.803228
17.367144 9.0801458 44.894505
60 52.581421 54.404659
0 23.509426 61.738251
50.336605 81.222679 26.686678
36.405758 48.44772 7.7640443
0 62.593346 39.745842
40.897137 7.3470807 64.863617
32.447277 28.40312 11.426131
0 36.374767 40.43309
0 43.291843 11.213431
0 55.261494 87.557228
60.000004 60.583733 64.796593
48.775406 45.507164 6.0663142
0 61.750751 45.37653
60 56.822357 62.190926
0 10.713518 48.814568
60 39.070908 73.572983
27.912001 0.4547312 60.884319
8.0780439 97.065147 52.500011
60 38.5079 2.1934075
2.3575256 67.05571 18.507376
20.286068 31.379131 78.738533
0 88.31649 43.756176
0 42.380112 50.86063
0.5991776 104.19792 39.951439
6.9487977 100.40214 46.720161
0 42.945312 59.980808
0 52.142765 57.98666
36.979733 7.564167 47.52026
28.49618 64.634575 97.938576
40.109863 32.468468 4.3847442
60 89.936768 34.992188
58.636509 32.644581 4.0797024
0 92.458153 34.243034
47.801105 16.147352 69.944458
60 19.310884 62.63324
0 83.002541 28.217697
50.448376 24.93399 17.434841
20.514818 39.232483 2.443625
60.000004 72.661934 62.462471
43.804581 0.67654628 59.449966
0 81.128311 43.448887
0 59.408367 22.483316
0 100.06352 45.407883
60 45.095181 11.246909
0 83.538528 44.375591
0 73.55497 68.32518
60 48.187504 30.141798
0 32.194046 30.839174
46.292789 99.421318 48.418995
4.0605216 63.810932 16.633999
60 49.539909 12.975965
40.620846 15.567616 69.609749
0 94.972931 37.118748
47.520615 31.306311 6.3976564
17.052015 1.3270819 58.323208
46.804443 1.3520756 61.402401
38.915089 24.489845 74.761002
0 11.532523 46.294975
23.048471 91.842445 61.545994
28.876059 9.0937872 44.87088
25.3458 67.309242 99.482788
39.694664 2.3519077 61.979652
60 40.198242 72.132729
60 66.242561 53.036842
59.114105 9.9303255 43.421951
0 34.566601 67.335434
60 52.355183 17.681198
1.6730005 103.78755 40.856472
39.948135 33.896229 1.9117855
14.630712 59.171238 13.95527
3.1072032 44.920982 86.556923
0 47.93961 34.791294
60 37.845333 68.254341
58.230392 71.720169 96.398796
60 25.953932 30.472706
48.384506 29.31282 77.545547
60 25.7125 63.225311
42.595718 26.564009 75.958519
41.593483 90.266121 64.27626
3.143295 55.895844 92.893265
11.048559 49.255817 89.059639
36.50267 90.957741 32.30722
44.37487 2.1477568 56.901756
58.821785 75.312195 23.27426
14.133174 14.86547 34.874031
52.568016 96.1717 54.047497
10.762778 25.695414 16.116018
60 26.438072 51.576057
58.535484 87.710007 68.703583
54.685368 39.099194 83.195709
60 25.274849 62.111439
60 61.689507 36.912655
47.359192 43.183609 85.553848
12.860764 45.945515 87.148438
48.547157 85.109901 28.930962
60 24.395164 28.399458
40.976917 85.240837 72.980309
30.279139 89.91053 31.70261
46.131802 12.098754 39.666122
60 80.221138 59.540142
0 40.956234 38.01059
0 37.184727 20.748739
40.421219 38.404564 1.965626
60 78.198448 36.356075
26.275677 57.418957 12.943593
60 54.344574 59.736145
0 69.456993 93.396835
53.634369 38.732269 2.1548269
60 46.180202 39.340706
13.347632 62.723389 16.006107
60 30.210207 46.857513
60 47.405647 17.79785
60 24.44002 71.482346
0 67.712692 47.021523
22.542707 69.342079 100.51777
34.054886 33.411598 79.91198
60 23.165384 73.389687
60 63.857929 42.079433
57.972294 87.211754 69.566589
0 46.749043 74.809059
5.974968 19.924917 26.110809
27.312626 44.833282 5.677249
24.491787 27.087231 76.260605
7.5920739 67.502403 99.594315
60.000004 35.346432 34.765106
23.977913 0.40020719 59.9286
0 78.522537 43.406395
0 49.505272 31.692934
28.857361 14.595733 35.341232
56.979359 99.08432 49.002686
0 69.522217 61.480537
19.302032 103.78305 40.86425
56.710644 72.830345 94.475914
10.821386 45.229645 86.73513
0 25.624136 26.224571
0 31.514351 44.619263
57.166691 99.600899 48.107971
34.126148 25.278913 16.837416
60 25.68314 74.132622
60 89.242455 65.909988
60 33.013264 74.678253
60 9.9160538 62.778645
0 90.197311 39.11586
46.399933 46.61401 87.534393
59.740932 64.598236 97.917587
60 65.746765 42.874657
0 61.000076 18.208611
8.2514772 57.63623 13.069035
10.337173 92.859718 33.405327
56.085297 17.870348 70.939232
49.124557 10.286186 66.560509
46.801235 39.3955 2.5377433
41.253201 15.382132 33.979145
0 17.815187 65.054672
0 63.857628 70.776085
6.8811479 42.471706 4.3137898
0 17.450605 47.379822
19.309731 81.50853 79.444855
52.409698 15.522285 33.736393
2.1340795 33.43718 2.7068858
11.011932 87.201645 30.138634
55.644711 57.764214 93.971962
7.9483309 25.707891 16.094404
60 74.367607 75.345459
51.651405 25.878469 75.562721
0 30.458822 32.066597
2.0474124 30.634102 78.308388
49.270298 15.973301 32.955212
44.286457 60.503784 14.724618
17.025698 7.5283532 47.582291
23.675013 74.025711 22.531506
0 74.796333 80.73465
15.292373 3.0279129 55.377281
5.8082209 30.878555 7.1385546
30.166086 72.018692 95.881737
60 28.779154 35.107769
0 65.361496 62.349308
23.407955 11.189699 41.24065
3.7958183 57.747391 13.133212
13.383289 51.54274 9.5509558
8.791276 53.614063 10.746835
0.022936808 73.757233 92.870499
0 31.23691 56.308281
60 63.05978 55.888943
50.42503 25.385305 75.277992
0 58.874836 46.645454
32.270428 82.700516 77.38028
26.649887 21.808046 22.849134
60 62.603275 69.034195
60 25.824327 38.12608
14.340067 90.989464 63.023388
0 40.91103 24.032509
46.019691 99.349197 37.152027
21.864437 14.978452 69.269592
60 45.425106 48.79533
34.411697 5.1398315 63.589264
27.152824 64.653809 17.120636
60 58.297813 34.865685
25.61569 85.193314 73.062614
22.146137 12.132161 67.626289
60 80.692581 29.035872
30.870283 68.246078 19.194635
0 12.200488 55.190464
52.429359 80.208389 26.101078
0 77.559387 73.808647
0 46.102428 57.32822
60 37.88501 30.116953
60 50.036694 86.372299
57.078041 42.872726 4.5453205
0 75.273544 55.085636
1.2507319 26.989542 76.204201
42.318253 86.460503 29.710737
59.135654 15.90134 69.802422
0 75.386292 27.333076
38.438858 34.660591 80.63308
42.962082 54.241894 91.938354
50.009968 71.792046 96.274307
0 35.983154 68.764709
43.956421 80.368904 81.418747
47.398388 60.441483 14.68865
39.836575 41.188961 3.5731978
3.4608114 61.741497 96.26825
0 74.735275 49.471687
42.378689 54.200321 11.08531
0 60.230484 39.538746
60 43.176987 41.686745
60 75.238869 62.161774
37.425632 32.103821 5.0163307
60 72.843613 57.832592
41.263115 78.099243 85.349907
60 78.588318 74.229836
1.3960004 66.87542 99.232323
0 68.634949 98.658234
57.420685 39.075584 83.182083
11.151378 60.820671 95.73661
46.194592 59.695244 14.257808
20.528193 3.3277636 54.857922
60 97.387405 41.964767
60 42.409588 54.134171
43.369038 92.944397 33.45422
53.391685 0.93464482 61.1614
0 56.708744 88.983261
60 62.015804 24.881065
0 36.642189 1.0059073
34.262928 75.680435 23.486862
60 46.291397 71.985329
0 26.637566 29.157608
0 68.270401 68.442596
37.986843 43.490555 4.9020247
22.359091 14.528863 69.010025
25.793768 3.3333721 54.848209
7.4633212 18.634207 28.346386
60 59.210934 27.358101
32.373714 27.493357 76.495079
17.254368 86.573311 70.672401
28.952789 99.377037 48.495697
0 66.805077 49.126518
27.967831 41.911469 3.9903371
60 94.060699 57.010086
27.600374 74.076515 22.560837
60 22.39216 39.539204
20.60368 83.261902 76.407936
60 79.720734 38.36528
9.0668077 74.142639 92.202957
22.265739 0.60174656 59.579525
6.2615209 71.701073 96.431877
45.777401 66.450768 18.15811
39.893181 26.786819 14.225646
46.716724 70.735825 98.103729
30.762806 8.0311499 46.711422
9.9020395 40.146477 83.800362
57.297131 32.989918 3.4815648
22.688936 83.665398 75.709045
60 43.389259 56.604767
0 71.813393 94.4552
12.856042 98.845535 36.861244
60 4.6785631 55.403671
38.116566 22.256828 22.071821
0 63.41156 86.072075
2.5400066 9.8480387 43.56448
45.802261 10.163336 43.018368
60 3.3578455 55.497227
0 33.162975 76.431129
35.054993 27.077934 76.255234
60 25.804926 40.835995
24.316799 20.635103 72.535461
9.3404446 28.642223 11.011995
10.310967 90.300644 31.927843
60 34.280884 54.022526
0 47.624851 56.144768
60 84.498466 42.407673
0 24.422857 52.466415
22.415222 89.205261 31.295425
0 50.611908 26.27951
10.568322 16.618408 70.216423
12.318567 45.384014 86.824257
60 57.590118 37.679169
10.497719 94.174904 57.50605
60 69.745033 65.880798
0 61.441315 35.980656
43.335407 47.269161 87.912651
55.338638 102.05265 43.861393
9.2192221 54.293999 11.139397
60 55.4235 81.113243
0 1.449878 59.74963
34.143166 100.54281 46.476517
0 74.018562 74.369278
49.982338 54.099136 91.855934
51.991005 61.571571 15.341105
60 78.694099 69.007317
19.62817 32.716763 79.510811
39.861347 42.625072 85.231377
0 67.525063 76.399261
41.693779 79.406876 83.085037
29.690422 31.499733 6.0626421
49.222702 65.661217 17.702265
0 69.842964 66.385056
25.232727 30.293297 78.111626
31.071167 103.18562 41.899025
43.039589 76.591751 24.013012
59.547211 83.789177 28.168446
39.698643 51.137642 9.3170729
13.164004 53.205254 10.510808
0 36.719521 75.512436
5.8944449 0.88786781 59.083946
21.514585 93.926407 57.936459
43.971947 43.920437 85.979256
0 88.3106 49.045116
0 67.842644 21.315243
60 41.491123 59.511139
44.262714 33.172535 3.1652603
21.514996 13.077971 37.97007
0 30.615419 34.106575
60 44.691875 53.939457
0 52.915615 63.379704
47.549686 102.16314 38.776657
0 22.961899 22.60173
60 79.625282 62.426201
57.206825 6.0833149 50.085171
0 48.093449 51.429291
60.000004 38.570747 14.719373
22.978594 27.277069 13.376508
27.056171 43.737686 85.873741
60 81.60955 70.834991
12.11095 77.680649 24.641685
24.989309 9.4636946 44.230179
13.94604 3.3528826 54.814415
21.576101 89.136223 66.233315
47.508305 89.629837 65.378342
57.173607 53.857891 91.716652
34.696339 74.376312 91.798225
50.573662 33.867477 80.175179
15.881789 74.524582 91.541405
0 33.951698 29.152748
11.728109 87.308922 30.200571
6.6455026 63.330517 16.356634
8.6698437 12.716086 67.963417
2.6329319 44.182667 5.3016143
18.742916 95.602608 55.033207
14.2253 85.30941 29.046152
60.000004 66.109695 61.351089
0 28.110111 27.094334
20.249245 32.011383 5.1764379
46.904041 54.175442 91.899986
10.778296 56.515007 12.421694
60 64.119987 19.140606
25.594223 31.198551 6.5843034
60 46.916977 22.769997
60 59.964813 88.387413
60 74.061722 25.49036
13.205988 16.608192 31.855545
0 13.08627 52.809769
60 75.150764 46.153301
60 42.787811 12.571539
60 77.029243 55.533272
32.627754 6.3027229 49.705143
46.955246 27.098135 13.686431
0 84.981796 54.195461
0 28.55188 69.559303
7.9282594 13.121634 68.197556
60 38.282246 61.231903
13.140581 98.90564 49.312172
0 15.576815 61.16581
51.501144 12.592533 38.810875
60 53.813076 81.199478
42.574894 5.6105733 50.903984
49.008316 79.983208 82.086792
60 81.13681 78.952431
0 69.11972 84.502708
32.955437 4.2604022 53.242546
56.097977 23.857119 19.300035
0 43.492222 12.143416
37.244919 82.133575 78.362251
0 60.047279 91.94606
0 20.852461 44.310471
44.518917 41.244183 3.6050808
0 48.218422 26.614792
8.98563 31.810143 5.5249953
60 55.912064 44.39426
44.339386 32.269993 79.252869
21.391823 0.38842291 60.846039
54.654362 21.363134 72.955795
60 76.159782 31.002325
41.090611 73.938232 92.556999
0 54.631561 64.437904
0 77.370453 56.409233
60 53.135223 65.450226
56.871159 23.154669 73.990135
7.8713722 76.012917 23.678818
19.564783 29.025961 10.347341
16.359776 86.404999 29.678694
6.9519496 71.729034 96.383446
0 63.79517 84.164619
58.379662 32.680283 4.0178709
40.208851 5.2382207 51.548916
37.860947 92.98703 59.563511
60 57.024353 17.015459
47.820385 29.362465 9.7644978
15.197303 93.099167 33.543571
16.478376 1.7738897 61.645935
14.62363 87.049583 69.847473
60 46.534595 24.735741
60 21.87826 61.153339
53.790077 23.283403 20.293741
60 35.130146 51.516907
59.136978 79.701019 82.575554
51.419704 82.233559 78.189072
37.665287 2.9131746 62.303703
0 60.950405 43.246025
7.4132214 34.387638 80.475494
33.678261 20.809532 24.578611
8.3458586 14.245051 35.948627
52.149303 10.349425 42.696049
59.275452 29.3888 9.7188826
45.578289 62.343964 15.787048
58.216263 98.1623 50.599693
0 57.564293 90.680313
41.857174 87.566765 68.951675
15.886822 67.860809 99.801239
26.905918 94.002464 34.06509
0 82.140358 68.994545
59.209515 33.216118 79.799118
60 30.154564 36.922779
0 44.496525 63.687401
0 38.459621 7.1361418
50.608082 85.04644 28.894327
46.717392 92.103783 32.968884
0 57.311867 81.48671
60 70.964874 37.744453
58.232021 2.5267062 56.245396
59.542583 27.714169 12.61943
60 18.069321 30.803885
0 78.273064 27.682676
0 67.965614 26.54673
60.000004 50.90176 67.735489
0 73.303795 74.497017
20.53064 4.3456297 63.130733
0 67.519691 78.235649
36.342781 77.779816 85.903183
0 40.441448 82.472282
25.838989 39.951672 83.687897
0 10.746901 50.63126
30.036556 5.7117987 50.728653
60 48.02916 20.317177
18.376488 62.989258 96.988647
29.448717 101.46435 44.880363
35.001839 15.803476 69.745926
7.8908329 37.804642 1.6192616
56.913555 52.32967 90.834328
0 70.597527 88.404465
16.512575 82.613251 77.531433
60 44.945564 6.8328862
30.167391 93.137581 33.56575
19.81616 103.2973 41.705597
20.244534 12.576814 67.883011
0 45.255825 79.277588
0 32.838837 4.9171786
0 20.204552 32.112732
60.000004 41.657089 77.684082
2.5132263 33.507889 79.967567
60 55.365982 27.132381
34.797619 89.48011 65.637672
60 44.886204 42.641716
11.420403 72.095978 95.747871
40.668324 59.689911 14.254727
0 34.731342 57.919201
9.2885399 56.00201 92.954559
34.092758 102.81618 39.153694
56.88599 54.676254 11.360091
0 15.341929 52.105999
0.69852513 74.735321 22.941196
0 36.639675 54.353855
0 72.025276 66.570045
0 32.277683 70.786522
60 26.815987 29.672579
15.330097 13.035849 68.148033
0 50.523911 75.357338
60 32.608612 49.376663
18.468531 67.042343 18.499657
54.903717 13.346081 37.505688
7.6054215 68.499748 19.341093
12.966343 28.47949 11.293855
36.654644 15.646604 69.655357
20.805927 8.7984276 65.701561
7.0200872 68.673904 100.27068
0 83.604713 73.710976
10.824806 100.17323 47.116665
16.08363 84.309669 74.59314
15.757421 99.281174 48.66172
42.651501 16.371645 32.265259
45.026722 27.076551 13.723815
0 71.281456 67.251328
60 43.880005 34.793934
29.9874 91.120438 32.401154
5.4306893 24.95759 17.393967
60 63.528099 23.410404
60 18.127008 64.149956
4.4515357 28.466877 11.3157
18.929806 27.791838 12.484905
40.700138 101.26782 45.220757
53.450653 27.317455 76.393524
20.773666 17.330166 70.627357
0 91.151764 42.261871
20.483276 97.513809 36.092369
0 82.352623 69.49147
58.79718 34.895699 0.18065253
59.999996 84.922379 40.081966
0 82.374725 57.844242
36.653976 62.728115 16.008835
60 27.330353 75.524796
0 31.129782 74.255989
0 60.327789 89.480347
6.5609455 72.207237 95.555168
10.992862 22.503801 73.614357
25.464041 58.270325 13.435127
37.652462 11.278807 67.133606
56.38007 28.44734 11.34954
0 70.379395 95.378784
14.775299 91.053528 32.362522
19.198814 85.292709 29.03651
56.532837 54.446018 11.227166
52.07983 52.217716 9.9406538
49.741238 12.081189 39.696548
32.41024 70.705688 98.155922
59.689121 19.426903 26.973396
60 27.845665 68.087158
17.167959 16.222086 32.524303
31.707087 51.908775 9.7622852
15.209964 33.764343 2.1402173
0 75.37896 79.288231
34.936169 86.666191 29.829494
0 42.08865 33.946568
28.597519 7.560637 64.986916
41.29752 31.49407 78.804886
17.083906 17.962553 29.509727
36.817749 102.61021 39.034775
13.716082 5.3663731 51.32695
54.775211 93.011665 59.520844
11.01125 34.344303 1.1357015
0 50.242352 71.583107
8.771306 82.138344 27.215338
53.23354 37.615337 1.509966
8.5912437 17.092136 31.01733
16.227301 35.914417 81.356979
28.143478 102.33504 43.372284
60 60.211929 21.67275
12.93854 88.567276 67.21875
60 68.221207 52.246025
4.429522 43.399895 4.8496819
0 56.675255 47.049828
60 91.519234 45.572414
58.798439 57.439205 93.784325
0 46.819302 48.373131
55.168781 102.80245 42.562695
31.0625 91.732559 32.754562
13.343922 59.679577 14.24876
11.025295 13.319098 68.311569
5.6968384 65.624069 98.509857
0 65.030853 94.774803
20.427795 50.353649 89.693474
18.349831 11.889233 40.029022
22.055029 1.5819476 61.535118
60 20.664728 50.197083
0 52.97839 10.541732
34.916676 9.785429 43.67292
14.959215 81.430115 79.580673
0 66.701622 67.283798
33.921711 29.634377 77.731201
16.950386 12.845415 38.372871
60 36.433315 63.148891
0 19.58934 61.66716
0 49.892982 64.751968
0 87.59977 60.0173
60 69.880898 35.225662
19.8568 7.3374705 47.912907
59.999996 47.083309 41.679482
60.000004 84.357819 32.637615
0 51.238491 30.534027
60 45.258221 55.957584
53.913868 80.098076 26.037388
2.6306822 96.409363 53.635841
56.266331 3.9587362 62.907356
26.84613 43.164074 4.7135296
6.955615 54.927299 92.334068
59.999996 57.975594 53.727535
45.833473 99.65715 48.010529
0 81.390015 78.68853
8.4095898 65.436073 98.401314
21.766224 67.924324 19.008867
0 64.910873 64.2444
28.643879 89.492279 65.6166
0 42.472084 32.079208
38.382423 41.803295 3.9278824
60 73.746788 83.800941
15.46096 38.802967 83.024681
0.51575887 64.167564 16.839903
60 46.288586 70.067421
46.781647 69.493118 19.914612
60 48.164547 11.013829
15.631677 70.865944 97.878349
58.788193 19.394615 71.819267
0 69.237999 92.877357
59.999996 84.210022 43.765091
53.550274 102.40409 43.252693
28.268105 17.882486 29.648407
31.083357 22.049234 22.431385
0 94.212929 56.940308
8.9897165 82.786003 77.232201
59.999996 66.684647 59.815964
60 52.095726 67.135895
10.208789 97.20977 52.249496
25.030045 10.427671 42.56052
3.0115342 54.036823 91.819954
51.475632 44.949074 86.573143
0 40.059647 60.895092
27.683046 84.087875 74.977295
0 82.43029 49.148399
0 27.800411 37.281055
60 46.419228 50.348518
60 26.350042 34.333389
60 29.201941 49.430046
0 39.256683 25.944445
7.8469019 77.678612 86.078468
47.535542 72.099388 21.419346
11.267933 54.077011 11.014118
58.687775 98.958282 49.221004
0 88.67469 46.556324
0 83.161194 36.98587
43.623516 0.0065586539 60.61042
15.991001 44.259594 86.175072
36.999771 87.111092 69.740929
42.093903 46.586788 87.518677
3.7805378 16.763956 70.300453
57.638832 97.175972 52.30806
44.721603 69.901817 20.150576
4.6663785 38.443378 82.817078
56.355717 19.409046 71.827599
21.919186 65.161537 17.413773
42.058403 93.888321 58.002422
50.147682 54.031246 91.816734
10.519172 91.410812 32.568794
28.683502 27.19561 13.517601
51.552406 62.538792 15.899528
4.7136822 1.9510051 61.748192
0 53.032398 69.733849
60 73.882736 39.474812
17.362751 46.557705 6.6728449
60 10.649734 55.391254
0 51.040588 73.144028
31.933228 91.137978 62.766159
15.34032 12.823239 38.411278
55.58987 19.600359 26.672962
60 75.321205 34.972481
17.794937 31.804598 5.5345993
43.268406 7.1658006 48.210247
0 51.032505 14.817917
37.154449 32.183178 4.8788795
0 69.178673 38.325809
60 7.6875954 64.024139
60 13.587759 39.367588
35.568027 5.8274899 63.986286
50.568245 74.287773 22.682808
56.741447 7.1473389 64.748299
11.991755 43.910725 5.1446104
0 82.066666 49.257175
23.246603 81.972275 27.119455
0 29.740685 30.224806
60 100.47324 45.96059
60.000004 66.481934 97.372826
11.341807 24.041481 18.980711
60 60.582947 16.03046
57.789265 4.1352658 63.009277
7.9402423 103.18344 39.36573
32.46703 64.207474 16.862946
60 47.81068 19.970402
60 76.937508 62.075832
31.194118 14.569005 35.387524
2.6866138 8.4297352 46.021049
50.527126 76.395073 88.301628
21.102325 11.501108 67.261948
59.448318 79.528259 25.708406
5.8450751 82.673973 77.426254
43.703873 40.065723 83.753738
19.389011 80.133224 81.826958
0 11.473908 48.471409
0 37.706589 71.388
16.760185 102.74605 42.660397
60.000004 85.546059 43.561287
26.549067 67.718033 18.889765
60 64.427322 36.881893
41.716892 22.953457 20.865227
38.102772 97.045822 52.533474
59.999996 28.058039 15.697428
60 44.559685 69.002014
41.81707 9.8375044 66.301468
60 30.340322 18.914423
0 43.008736 11.15715
31.937584 15.313438 69.462997
37.346363 54.437431 11.222206
0 64.027283 39.983658
59.999996 68.548538 94.29985
0 55.611633 79.712128
0 96.376457 36.585869
58.429115 71.419067 21.026564
6.1853991 40.368935 83.928795
0 38.436943 73.470383
0 40.518627 35.27787
59.999996 86.48407 39.737335
57.525776 40.73624 84.140862
12.222611 16.499172 32.044376
0 78.827591 71.104691
52.992085 86.25473 71.224197
31.973442 92.780991 59.92038
2.3956926 85.887619 29.37998
49.331486 96.150299 54.084564
0 62.941338 60.079388
39.532139 8.9776449 45.072044
0 91.651962 46.167847
60 79.727959 45.178219
8.5999756 95.597992 55.041199
59.999996 62.120461 50.739433
13.073339 34.080162 1.5932046
3.6553869 102.14957 38.768829
60 43.16835 42.611275
8.1160622 24.691824 17.854282
60 59.905476 64.825623
36.464725 71.453087 96.861389
0 63.86274 64.430908
8.8470221 66.455727 98.990013
0 41.617962 16.226624
60 64.562523 27.49629
47.76289 12.575656 67.882339
60 51.4753 42.500996
0 39.673599 51.741806
13.544963 42.326889 4.2301812
57.209126 64.095245 97.62719
30.816717 101.20679 38.22451
24.267433 30.192904 8.3261356
60 23.924494 31.375443
21.810818 65.830307 17.799887
0 61.405991 49.479496
0 45.868992 79.630783
14.957151 10.963613 41.632248
60 57.213604 16.322693
1.88134 92.883736 33.419193
0 62.305565 31.082857
18.895529 20.073195 25.853987
0 86.829475 38.58223
6.2095966 50.067131 89.528053
28.906816 98.041595 36.397087
42.598301 48.162575 7.5994167
0 12.276591 43.442654
26.655283 6.9946775 48.506645
33.673767 104.23373 39.972118
40.491508 70.460052 98.581375
60 77.965157 77.764557
0 67.913216 68.238823
36.356705 6.050499 64.115036
60 17.380054 49.449646
60 38.62281 45.928055
39.17786 7.946723 46.857651
33.688854 0.921947 61.154068
49.496593 18.212112 29.077477
36.393456 100.69611 46.210995
25.104616 53.738052 10.818419
44.724529 28.658909 10.983093
44.907848 73.461143 22.205551
60 44.304424 50.401886
40.62611 88.784279 66.84288
44.351856 90.814857 63.325821
60 42.31974 71.377937
