# .PCD v0.7 - Point Cloud Data file format
VERSION 0.7
FIELDS x y z
SIZE 4 4 4
TYPE F F F
COUNT 1 1 1
WIDTH 1612
HEIGHT 1
VIEWPOINT 0 0 0 1 0 0 0
POINTS 1612
DATA ascii
4.2132745 57.601421 90.459183
25.998709 17.653063 51.00708
55.002903 67.831833 122.8051
73.75737 43.539833 98.336929
19.87999 18.386702 48.663303
13.321179 39.052547 50.943512
12.699302 93.707085 66.030342
12.23359 80.128891 104.13081
43.863079 40.875759 106.11127
29.950113 94.725136 76.182846
66.827751 86.54174 98.123306
31.356148 2.4720483 83.261131
68.186958 59.732033 53.279068
15.480594 84.03138 53.032539
7.3722696 63.17783 79.540436
59.042942 44.463631 112.28725
43.516773 13.881047 61.189857
27.602503 75.639183 115.51656
47.562904 17.756468 53.681328
43.513279 4.137826 81.429474
32.321209 99.975868 65.592918
37.48082 58.264877 112.96342
16.232647 58.574528 44.217793
36.138412 65.478622 116.18279
67.618195 59.02676 52.762249
55.051041 17.072132 56.106155
36.154831 63.380661 115.13853
53.694992 34.910728 36.684948
77.275192 80.111603 93.223457
74.112274 90.946472 89.949081
7.7807822 26.111706 88.313187
68.854652 58.092598 52.6521
36.740013 81.057602 54.863907
43.593536 67.416893 119.30403
55.671169 21.178442 47.658989
51.689537 24.864622 39.468063
36.88179 67.419022 117.36757
18.749022 42.018459 30.647579
22.893625 97.036011 70.436981
71.440239 89.20401 68.954208
30.834097 20.067926 46.638382
78.941711 36.186214 76.587753
30.610849 96.532204 72.517479
11.48843 89.90731 83.717781
11.405928 22.820101 54.581169
64.91684 58.455769 120.97897
72.389595 54.792603 106.236
12.454537 19.522213 86.36763
79.83876 51.88855 52.720913
57.429653 84.323967 101.47131
75.634827 14.102987 84.24781
11.903753 69.520111 111.20758
74.413643 30.314945 92.730927
77.106178 14.026361 78.541763
83.25885 40.585445 60.918415
10.384152 57.566975 104.79234
44.065022 37.236588 104.34998
39.567852 52.941998 110.90446
62.934181 80.143448 61.968433
70.026894 54.918449 115.39948
13.086094 95.409866 64.930115
71.51123 59.543636 110.73425
82.702591 53.86528 54.535999
81.381798 29.811007 65.674942
39.553986 19.99621 47.955608
50.935677 12.556629 64.935081
22.370928 37.294041 28.834124
4.1595273 46.183327 88.017395
39.268841 92.40007 61.265152
53.323364 12.485221 94.646957
77.458244 63.969231 88.769913
32.591278 74.859619 117.80434
19.811325 27.200951 30.343819
8.4369936 24.290112 66.400261
76.350677 77.541878 96.201355
55.962879 2.9172974 85.632874
25.545004 99.892044 64.859222
8.2371655 63.833591 107.30587
84.739174 59.23428 59.522915
67.307091 72.565231 127.22163
26.034582 53.018925 37.754177
73.522942 2.4516544 88.952774
25.721107 39.258064 100.06528
19.749365 40.07259 98.748657
45.057625 86.953735 60.213058
54.661686 31.926893 104.75412
34.684589 26.239794 96.143684
18.229877 78.848816 48.4161
78.501831 79.851852 88.420937
12.457263 53.461864 57.627121
81.840851 82.971306 76.236069
48.531178 67.325096 120.68351
10.359682 67.607056 109.80531
59.162045 56.258049 118.21885
32.42305 62.881725 113.81181
45.669937 16.465334 56.109856
55.559273 10.76485 69.27668
71.837486 66.571548 111.10378
51.786453 62.197544 49.777409
24.066257 36.853802 98.385445
82.689781 50.3433 65.382751
36.938274 48.341759 107.84525
57.666634 17.561895 55.439167
3.5743568 30.658922 86.677223
37.061001 33.133965 30.994745
35.289993 94.158607 60.995823
35.682365 40.049271 34.05442
78.36631 12.346144 73.280159
38.821957 37.643929 103.04011
81.636215 50.052822 69.388458
13.58637 78.669487 107.34373
22.727493 77.259018 111.49848
12.265226 79.374901 64.38269
41.444893 31.976557 100.96359
40.836609 77.477921 113.46989
51.112297 86.547623 61.757835
14.48857 52.200367 49.481308
78.531891 85.081985 89.51841
48.44598 65.564461 50.496555
14.087987 49.250134 50.345367
3.7487869 70.985489 95.360687
32.247463 89.535995 87.270309
25.5833 22.97912 91.886032
52.654633 8.4779615 73.638199
12.320037 31.292683 53.013268
13.79961 23.478189 45.479839
33.89822 80.626854 53.828175
26.164734 13.728034 59.182987
86.77224 29.746065 43.651196
36.820812 11.679262 64.866646
56.710247 68.760841 54.480434
64.149666 32.894939 107.97709
18.241676 43.760792 33.013294
81.599876 41.065434 67.443428
13.885327 92.999901 77.61451
53.779228 68.242493 53.375153
14.805284 12.118528 61.004616
18.457926 27.587481 29.359539
35.691952 5.8405161 76.844521
14.106973 99.581093 63.972755
21.079824 74.24482 116.21883
75.794456 78.822052 98.648766
59.590481 32.664967 37.263947
14.723423 58.681828 50.077393
53.456181 81.369476 107.07645
17.282944 99.001442 65.602394
59.135502 5.3375354 81.030243
70.33654 79.876648 112.43913
68.709656 11.61855 98.655258
83.511772 34.843121 58.608105
49.824417 55.055439 114.922
5.4974651 25.984327 87.590355
38.011497 84.397758 56.901028
83.15834 81.626411 70.830536
63.407269 17.657246 100.14394
67.500946 18.925484 53.924065
75.122406 7.5061345 84.698036
54.744564 14.438203 96.033707
2.567378 63.220371 98.126144
7.9559016 50.219193 74.277039
81.460274 48.236805 69.64724
53.56945 7.3734255 92.162086
79.306358 49.498505 78.267128
9.9855394 86.950027 89.659752
57.103592 94.143852 67.285492
71.105629 26.095173 104.5406
10.098876 32.785297 92.319145
71.973221 66.72187 110.61389
15.276914 50.778683 46.103653
58.26862 57.96862 49.534191
23.479052 78.169014 109.70879
69.260674 58.025105 119.0826
49.722569 84.048943 101.01007
2.2196417 73.411606 101.83539
72.078369 49.405762 106.18917
14.590366 32.876343 44.603603
18.694345 71.038933 113.92726
43.557415 8.589551 72.187592
43.586605 37.22023 104.20369
77.665329 50.829502 84.920219
33.308098 66.602859 115.92786
55.509876 87.633797 94.338417
62.207298 85.000618 100.70573
49.019714 42.471539 39.115715
24.262924 9.2404585 68.250458
76.431374 87.717743 69.651878
81.395607 47.897697 69.818581
29.174212 93.081894 79.492508
3.2422922 34.504791 88.853432
15.560446 25.746151 90.376198
17.273851 62.054276 109.02488
12.306298 91.85643 67.120255
24.046661 54.733067 38.037384
58.523556 25.929932 38.170628
77.696251 10.067712 73.690666
6.6368017 51.56237 100.70827
16.911837 70.865807 44.444237
72.923508 50.093655 103.0815
62.174984 29.45615 105.68765
51.286968 51.597866 113.61541
30.812031 6.8918705 74.006706
2.5412171 54.269833 96.150291
65.405342 87.559975 95.817513
63.021915 22.676199 102.54217
39.202362 10.812384 66.986519
17.161726 47.85994 38.139622
33.354988 84.943855 96.958176
16.048094 74.365524 48.595589
17.924244 49.897018 103.134
82.201012 52.324116 53.620621
73.906021 62.047771 56.087887
51.393433 90.298416 63.714394
36.618221 75.859947 116.26582
52.935268 47.171337 111.87798
3.6340592 29.775612 88.948082
13.430034 35.062962 49.596889
21.443527 57.73727 38.788021
17.746952 20.239647 44.528316
29.15667 14.504947 57.96991
15.165376 31.465853 42.053303
73.644089 13.962271 91.911392
25.971958 73.259445 117.13839
10.242721 60.106518 67.730507
36.717293 40.432011 34.544552
72.313705 98.475853 74.066948
58.208847 73.829102 123.3772
14.714664 33.329197 93.923561
22.809656 15.716258 87.453918
25.847162 77.665352 50.023285
15.213085 96.963112 57.067558
3.1842484 46.852299 97.356575
77.82164 50.820641 51.604668
84.313568 56.866089 60.618774
7.641572 12.79995 66.809074
37.059727 23.215483 95.317177
35.837299 17.003729 53.674095
84.642975 40.292934 55.499493
14.109529 70.262939 55.138126
24.402433 76.759918 49.153511
65.271034 89.723427 91.305275
61.036377 83.790886 103.0619
74.862854 62.762108 98.523651
71.869789 55.353237 108.37565
23.106735 42.565975 100.96453
25.356113 88.245064 89.02877
28.854795 75.458557 49.788116
14.122398 20.745081 87.460541
7.5287199 10.906027 66.805878
19.687645 78.870598 48.847809
72.502846 17.098042 97.05114
51.190414 71.364929 123.47108
28.965523 80.616585 105.35934
61.938602 59.681076 51.449848
70.304062 78.420242 115.46025
40.232395 59.482269 45.084408
42.767624 81.797066 104.7562
16.239189 81.611366 101.58784
11.527514 56.190662 61.854782
39.522861 67.255608 118.04829
61.193775 31.231337 37.009964
35.332985 79.675407 108.16757
9.8596783 62.490162 69.764481
68.406342 39.303917 43.128345
67.021431 70.788567 58.470882
32.99263 28.718945 96.894836
9.0899506 56.286224 103.77837
79.755623 80.565201 83.739288
18.853161 77.054474 47.698849
65.182137 1.5468085 89.715004
84.90126 62.670902 59.693752
83.284973 78.974991 69.725716
30.556118 63.550167 44.32505
76.319069 76.680748 96.123718
55.494804 23.890726 42.000992
70.224251 71.368263 118.45367
5.2460613 37.28223 93.166725
65.465164 10.537969 71.075127
56.326748 75.971062 57.974838
48.489635 76.292084 116.9586
58.670998 43.495689 111.69592
80.355247 67.415817 78.369812
12.119643 16.969143 50.568382
5.4987092 67.669403 87.825943
30.858021 96.219925 60.747078
65.304459 9.1797113 73.875168
39.773724 91.341286 84.528427
66.910141 31.403822 38.746376
61.53886 97.465248 74.722778
60.739147 82.02092 106.69891
33.655338 83.85334 99.263794
36.839352 6.7984929 87.045059
74.794769 51.42709 96.15657
25.847616 98.397148 68.00518
70.380989 67.953239 117.05527
31.265457 17.898188 51.20348
51.53223 46.436806 111.10568
65.003021 91.595573 68.291718
40.103706 96.685257 73.471336
77.029869 13.602114 78.738312
84.223793 50.12706 53.106018
82.779434 75.908089 70.96846
15.182623 87.463295 89.28978
68.700996 93.340172 84.251556
52.66708 53.667648 115.04871
56.623348 7.6623068 93.18811
44.286976 90.14492 87.618355
31.659264 16.203302 54.777111
18.128746 44.840492 100.66477
41.947113 76.47303 115.70617
58.890312 21.761938 46.878151
61.776508 16.383024 58.438713
41.978809 84.893295 58.294064
49.317081 94.48645 79.273392
64.499504 97.880135 74.257561
5.9364557 30.789482 77.575592
3.1083705 49.753826 92.909729
12.076868 23.22068 52.080246
73.523918 5.7046447 90.459785
71.917877 8.4297886 97.301155
45.182102 53.091209 43.317726
77.633408 66.941574 59.610798
48.046947 91.253578 63.225922
60.978245 79.246712 60.955433
68.779655 82.341591 107.11
61.74622 45.885456 44.496502
21.281071 38.901531 29.323256
40.417309 8.0084162 88.682892
7.1517477 62.808105 80.30719
47.288429 92.167686 63.464012
5.1104007 62.326855 88.08741
6.7033882 47.742268 98.817444
76.179329 18.52787 83.169548
33.062199 100.14495 65.340942
59.305618 6.7141953 93.488365
70.685295 89.687149 92.105995
33.549469 85.735054 95.34063
11.797499 18.665899 52.103355
56.692936 55.282871 47.736454
31.279104 87.816292 56.666821
25.762089 100.9837 62.620537
48.900654 88.804337 91.021324
9.6851311 56.935825 69.150391
18.885164 66.802292 42.581997
41.080494 80.813278 55.994732
31.860096 95.498314 60.675549
69.344704 23.555738 104.80717
53.191628 78.275612 58.222084
80.670341 30.598976 68.608292
51.319977 85.598259 98.005608
36.452141 41.211823 34.857914
17.188164 95.05172 73.794662
32.699764 36.187057 100.54435
59.437378 73.736641 123.73386
12.996202 64.623344 58.133606
8.4191427 51.373138 101.12817
13.037694 18.357218 47.807858
3.2823291 55.00938 93.456757
29.290754 16.00779 54.865944
39.355251 40.379505 104.56184
10.026295 23.204359 60.004028
12.458792 33.243347 52.929493
71.043922 51.036201 110.56672
42.159557 93.64212 62.720654
31.950344 14.683317 57.973648
56.72052 97.82341 73.333229
35.908123 48.310955 107.53246
16.256256 11.758683 83.583328
57.067055 41.575775 110.27293
36.525013 36.261963 32.404018
5.5596261 74.137459 89.091354
4.9476981 15.603241 82.241104
10.738561 3.9345727 78.078453
7.9581556 50.323528 74.292534
6.1584673 25.240801 75.42971
76.319122 7.5699973 80.086296
28.892014 40.989037 101.84613
4.4728346 28.872869 82.78923
72.902679 46.914356 102.42428
68.82666 71.422203 123.8693
79.16127 32.813381 74.956238
73.25666 6.1272473 91.59108
74.689842 31.00054 40.790543
72.837608 9.6714926 94.033607
1.6422112 59.832981 100.91682
9.6572294 51.731426 68.050575
31.31061 21.718136 92.908875
31.58717 91.181992 83.762543
21.972841 80.574738 50.359558
16.672176 62.28059 43.378555
61.163372 60.76012 51.765579
3.8015966 54.169529 91.254364
64.618645 63.541958 123.43599
39.872974 52.945499 41.712265
15.396771 47.733192 44.933567
55.070183 14.033309 62.421417
3.3303597 80.862 101.41508
5.4153719 83.55793 91.835075
56.796345 88.517021 92.676003
6.9833627 69.010292 82.397385
18.614162 75.975952 113.61276
14.346313 11.198055 62.85527
51.858562 23.901695 41.491047
7.2456961 51.563068 77.334564
53.930702 52.730198 114.94476
41.559425 60.596985 46.024841
3.8383491 78.758507 96.818169
27.244154 49.046692 105.39927
18.265688 46.488323 33.553391
8.8968 63.213814 73.654915
5.9443245 82.497307 89.544006
45.877766 28.200638 31.759359
70.092957 42.672409 45.299469
79.829803 47.051189 75.675583
19.888731 92.502495 79.452103
5.6377602 18.479088 83.878235
13.880948 45.65974 99.84816
7.6859393 44.810345 74.06559
53.658993 80.972862 59.705624
49.103683 73.376999 123.09653
25.625362 76.945274 49.599216
58.315052 22.164015 100.92732
11.29347 5.0685239 75.179451
78.506737 24.120462 44.60677
34.208881 23.853977 39.225563
69.870308 7.1318045 78.741104
37.851803 11.256836 65.882301
6.5847282 60.678658 105.25138
46.892319 23.462257 98.278984
29.638912 88.415405 89.24868
29.362988 78.711853 51.561466
61.561287 86.674965 97.140976
33.061684 72.751373 118.93098
76.297653 60.478088 92.446671
54.169418 95.991798 67.362442
45.95911 91.161064 85.731483
73.831673 21.039648 92.828514
11.115791 77.105957 68.299927
5.0744081 29.706762 80.657036
32.015961 64.150429 114.32863
80.379951 28.339804 69.206688
74.108368 96.645058 78.110596
18.251757 44.294033 33.098064
81.204689 37.863007 68.228119
3.346277 35.809589 88.754204
83.89447 21.516691 54.036186
16.571827 5.5991488 74.784325
46.174404 22.966301 42.672653
61.226357 86.689079 97.066795
22.358345 59.513771 39.940357
12.865437 16.333071 51.989643
78.679733 31.050341 76.40876
9.1218452 14.780875 61.545982
18.792862 91.022881 82.378967
54.221832 64.433159 120.88028
83.821716 25.874094 55.328602
63.889442 65.43663 124.17281
69.619591 88.11129 95.236832
12.473835 66.169907 109.69704
73.595497 6.4394031 90.353554
68.7024 91.387863 69.255783
46.888523 74.319901 120.841
81.977615 54.578217 69.118721
16.133892 47.776669 42.093929
58.364006 24.927145 40.232391
10.275702 7.8382182 79.89666
41.896305 90.257805 87.063568
33.700821 70.657761 48.786648
57.608624 54.653664 116.96822
39.972519 7.1590362 74.678986
75.22142 15.416812 62.24715
10.676794 76.495941 111.46915
77.055161 44.964836 85.918251
7.3473816 26.512304 71.128387
67.733734 78.581955 114.77995
82.408463 48.974628 66.15274
34.18721 99.192604 63.194477
70.096901 70.39637 118.72047
45.328053 27.95458 32.196857
51.620613 52.763279 114.29444
17.21483 5.1550279 80.55822
58.195728 40.77108 110.19641
46.206909 82.843552 58.489735
8.119235 22.767557 67.275414
24.604481 9.0427828 68.706863
77.508881 25.253233 79.590096
35.875767 46.142639 37.156937
83.638008 56.538219 63.154415
13.138275 67.835381 58.3297
7.1168656 35.266426 74.050964
61.837639 78.969391 113.18519
16.809784 57.828674 41.813484
72.46833 33.470917 100.9839
24.601929 7.4053731 83.815865
58.392216 79.960403 110.66492
11.131791 26.375422 56.466003
43.97261 6.4685302 88.939278
21.986618 97.230148 58.691238
53.079933 23.916109 100.29212
13.146996 73.897659 59.702747
80.702629 62.737823 75.941284
22.85771 3.9339283 79.085716
48.660427 80.285583 57.919025
34.592949 61.960793 113.97773
66.714035 95.279449 79.956787
14.363519 58.752548 106.53387
4.1110592 30.637312 89.516624
26.146868 11.599238 63.602848
59.46825 73.797485 123.6116
52.603962 85.565903 98.244835
73.336136 86.589622 98.895782
69.454666 7.6876683 77.530693
47.08139 75.525589 118.36221
22.075373 85.52845 94.232582
77.031784 29.231119 40.581894
43.267796 95.383766 63.911396
74.908157 47.555298 94.819771
4.6490164 56.714737 88.56884
61.269653 67.956612 55.394505
11.618068 10.979377 62.944031
74.922562 43.102402 93.730782
30.217886 80.29335 52.599003
72.469055 62.889141 107.80762
25.731857 18.491995 49.228573
83.827888 23.217127 54.68819
49.613003 9.8722067 92.269348
11.694391 73.168633 65.149376
23.677689 12.30561 85.999176
64.580238 49.428024 116.36794
53.4147 23.367107 42.810055
21.850237 59.947395 40.010494
30.694008 21.511702 92.627655
39.133595 96.980598 72.727814
13.570826 78.780273 107.11152
22.157644 3.9674022 78.922394
8.4383316 30.086407 67.74012
2.5875428 65.029625 98.468025
3.8631935 48.969303 89.809517
54.487656 76.404358 117.52894
51.120445 47.460125 111.49847
14.655973 85.963074 56.668789
8.8178511 29.739386 90.426392
53.756363 8.529459 92.79406
71.536964 51.548119 108.7794
82.093842 46.628098 50.741673
71.321167 34.057522 105.55497
79.385635 72.168427 83.221207
57.6987 94.473351 80.423515
13.055434 53.747784 55.380932
54.174511 94.800285 79.272202
39.512814 17.537968 53.056725
77.609886 84.252594 68.259506
39.16732 78.48774 54.279675
58.574421 59.053837 119.44711
76.160965 23.107265 46.397259
33.031818 83.063202 54.796238
43.182503 32.794056 32.591919
36.969673 86.619606 57.711208
77.874084 81.690063 67.054527
84.21595 33.981178 55.685711
49.486584 33.022434 103.80797
81.236832 32.629044 66.889297
72.074333 21.797564 99.798302
70.928612 50.504673 110.88915
7.0832391 30.680895 90.396408
10.88251 5.5387645 78.922104
69.21254 69.344467 121.89535
23.635815 51.167694 105.41813
6.5202031 8.8202753 70.22084
13.517444 12.044018 60.986858
69.640327 22.035192 47.750732
17.769014 91.382553 81.494614
74.347809 63.893814 57.138443
38.193108 30.07147 99.072342
13.402519 59.90773 55.468502
22.771553 42.682709 31.644112
2.0193386 62.752205 100.13624
66.272179 11.351997 97.818336
11.072096 15.909135 84.162018
75.573883 18.674755 85.544289
80.538582 45.156704 72.495796
14.545199 7.4368567 70.695236
79.126701 95.559898 81.03717
47.607395 1.4967846 87.50267
32.56649 70.470535 117.64761
19.512297 79.348854 106.72637
45.927826 45.009838 108.77435
19.124495 99.464729 58.982307
39.054935 91.288239 60.647484
15.5762 15.247574 85.131454
9.4369307 45.500191 98.485512
9.9519835 61.560623 69.191925
2.5026193 58.504978 102.98614
52.498768 50.498371 44.13345
14.153218 35.822395 46.977264
23.533789 96.163948 72.334328
63.392513 26.085806 38.499138
9.3649445 55.15694 103.29311
12.322827 34.807823 53.818165
74.630844 40.968151 94.363312
75.715942 13.020611 83.683052
9.378582 21.948462 62.216667
22.158587 27.508919 93.1623
70.895248 72.716171 116.17238
72.764717 19.915283 96.692474
21.10891 41.91399 30.779787
46.984268 95.183479 64.884109
78.752846 27.797436 75.371277
65.811127 25.955225 104.98685
5.1233768 33.247238 81.289299
10.897082 70.842964 67.692123
38.06818 89.577377 87.96418
5.1448426 33.415199 81.245277
35.490776 53.578503 40.763733
50.345402 16.198198 57.291187
60.080418 3.3620765 92.035973
1.8180195 69.611122 102.50616
17.570732 55.751507 105.95919
73.584282 29.458172 95.738464
33.15958 26.836109 32.890049
75.491806 23.032284 46.463375
71.586212 47.633999 107.68073
53.100742 53.475998 115.07807
30.663935 12.413162 62.517208
29.427708 29.18285 27.515072
68.608772 36.718636 41.894138
62.767929 77.579445 60.638435
9.114583 77.947998 76.23204
69.867035 24.94454 41.737373
73.843529 36.021904 43.056915
3.0554454 38.271561 90.449867
55.560123 40.124546 109.11231
81.432922 23.270658 63.959583
56.629993 79.646233 59.899963
6.0951881 66.501526 85.248932
55.395237 89.482307 90.48304
80.818275 42.977669 70.908844
27.001406 15.671443 55.257935
56.34 48.102203 113.32626
13.737908 97.012115 62.78199
67.40699 10.872057 70.641266
5.1345992 52.14933 85.632156
3.0493417 77.092575 99.481918
27.765846 48.333153 35.91106
65.464447 63.146549 123.48244
85.483711 49.685532 53.248962
4.3630195 69.78598 92.707703
48.973919 7.6899018 74.78215
2.6259294 55.29129 101.41489
25.643745 77.255859 49.759819
35.713875 88.628036 58.352901
55.792568 25.372536 38.96265
76.331764 11.663617 70.192612
62.919415 57.897564 50.841228
14.00674 66.275223 54.610161
57.285229 19.86581 50.602028
3.0211945 55.802719 94.650406
4.5471697 72.150986 110.39936
9.8234205 29.851685 62.330868
20.571606 61.588032 40.4617
66.225594 26.136288 38.773827
68.727074 76.479378 119.28082
27.868399 17.85416 50.839825
68.512115 13.780335 64.74781
75.695282 19.025318 85.156334
85.458008 49.147274 52.972416
22.321507 68.439384 113.67456
69.542763 33.021225 40.315052
12.971601 46.812431 54.095676
66.61084 54.506615 50.211372
65.64595 4.9527965 94.437958
18.465481 8.2582302 69.514175
69.305954 56.064865 118.45267
25.887722 71.340744 46.872688
25.489344 48.020432 35.09753
17.219757 84.094872 96.560112
73.68589 76.036308 106.15412
8.7991009 82.364143 99.027275
54.953209 46.424149 42.804874
10.508289 56.728092 65.919838
56.703041 86.880341 63.538105
68.707214 72.384636 124.55442
24.747101 59.570759 109.94046
25.188725 69.841682 45.921375
53.236107 82.770706 104.13614
50.519054 7.7261596 74.913841
24.185047 49.65976 104.82271
65.222076 60.599049 52.856689
40.102158 82.672325 102.5809
13.97145 63.945438 54.205959
27.62174 93.380165 58.392967
21.347748 13.00643 85.676994
21.985209 23.478411 38.368084
17.413231 89.516823 85.322731
10.004826 85.095718 74.448975
10.802289 19.910294 56.239632
68.254143 93.339035 84.194031
16.140284 47.999962 42.121037
8.7469168 13.160942 82.116699
83.66716 52.958557 62.211044
73.347107 96.859566 77.562996
45.029186 71.688576 121.8543
57.324997 25.05965 39.817936
57.14045 66.315292 53.381847
36.195557 53.792713 41.074287
60.898659 63.801109 53.209656
79.139107 44.21159 77.686905
18.233288 99.538475 58.761909
31.712845 82.107788 102.62968
54.723137 52.339859 45.696312
29.449661 62.501637 43.481377
18.147762 17.359238 50.565632
74.925629 28.106264 39.411472
42.96117 87.94062 92.019836
23.849472 44.944897 102.36841
56.2948 88.858559 91.899307
77.685722 88.44268 93.56955
86.261818 30.083784 46.871952
15.383408 17.953411 48.960976
27.809694 93.197487 58.355885
20.737381 42.701351 100.34825
69.791542 91.483261 88.255096
16.68119 52.67091 41.113781
12.471541 36.341244 53.599075
73.254578 24.031534 95.75383
65.032593 17.641375 56.26091
58.750004 31.594961 36.48632
17.061922 21.996632 40.786667
15.268191 52.514683 46.540207
84.367607 39.431477 56.364166
28.477407 100.67345 62.286621
74.464287 94.298882 83.032112
34.426495 57.520229 111.7094
74.596344 42.98978 94.96579
68.905022 4.5227618 84.031677
41.102802 6.41185 88.082489
83.497086 37.155685 59.201508
12.915262 82.385727 99.533913
40.206036 86.493423 58.582375
74.076714 61.592926 55.909744
3.0694134 29.846827 88.440895
20.19611 82.747871 50.933224
51.869259 65.757126 120.86314
81.970757 30.356041 63.524471
22.850437 57.783512 108.49932
16.142771 64.091652 45.845512
9.8342505 85.416039 92.826103
31.873898 30.581369 28.221062
19.797001 33.33675 26.112452
6.1361804 77.978127 87.753609
64.170937 91.435768 87.600754
58.871281 45.56398 112.78788
43.079201 1.7908281 86.246857
39.280018 19.689821 94.195282
71.626221 54.700375 51.756069
61.099808 24.975456 40.498558
49.655663 5.74856 78.906334
57.081501 61.687893 51.051132
83.998985 29.908381 42.931786
81.776337 63.932335 59.302139
71.663063 52.290665 50.561855
28.235209 62.538036 112.43103
30.754969 82.826912 101.00747
11.716889 56.916969 61.291187
12.559018 10.164524 64.762825
67.699196 37.472466 42.00848
81.931648 96.923462 78.580368
13.149915 7.9826689 80.798599
51.429798 59.824139 117.76978
45.204262 32.316322 102.21872
41.572784 16.640478 55.197102
49.417923 15.62938 58.34856
10.685216 83.82328 71.523293
71.270119 23.704729 44.500866
80.038071 55.142174 76.747917
44.421547 12.150165 64.906715
10.538146 50.689075 64.403053
5.1315365 11.634357 76.242462
79.242256 39.030224 76.085777
81.143608 77.86351 77.746384
46.814762 75.77166 55.129261
75.883148 36.292599 88.436913
52.357853 15.834131 96.042686
37.853355 88.089935 91.025322
83.97683 49.070213 60.111565
22.50131 81.918343 101.78912
13.190773 26.698767 48.580956
39.842644 98.049202 70.602959
4.4932604 74.373482 93.268723
20.524372 51.552658 35.430378
17.42454 29.045115 32.75758
3.0785115 42.965466 91.449921
56.809166 43.830608 42.043873
75.567459 72.541489 98.068924
62.21262 26.435619 104.18826
70.757591 13.072408 66.519257
0.91203392 77.058037 107.73679
26.782026 49.437714 36.179337
28.5413 29.304348 27.143921
18.094759 9.2252245 82.847336
78.770035 22.892254 74.166557
78.019188 62.723366 86.31218
70.8255 37.555534 108.28297
44.362717 46.127098 39.599136
4.4575739 34.675976 91.635986
84.585533 47.66938 57.433262
31.587444 73.111191 49.403278
41.321667 20.217505 47.732727
71.199638 77.827332 116.18163
85.097885 27.88501 50.861507
11.419427 72.812004 66.129646
10.901658 43.9268 61.428516
76.882652 79.733398 94.653259
64.825401 14.57812 62.596603
65.40947 12.449299 98.117943
25.714977 101.12445 61.714672
49.018356 56.821972 46.290539
78.414215 21.597717 75.241768
81.459213 38.808132 67.463417
6.8744645 65.038872 81.89682
58.882263 14.051527 62.894291
76.960495 43.559628 85.958183
64.884598 57.370472 51.144978
4.7626171 71.718399 110.24525
82.494797 68.753242 61.919994
80.020576 56.953732 77.235909
56.849449 12.492765 95.668617
71.96273 70.366158 59.6861
31.004288 92.093369 58.726028
59.532787 91.406891 87.039337
84.230331 60.715771 61.833893
44.775833 12.598258 92.236008
33.771 98.022194 69.845619
30.525173 20.22991 46.260498
37.59399 27.144604 32.843296
5.2882094 22.385509 78.131577
4.4999647 67.677551 108.14902
7.1601615 84.324699 94.734932
12.311153 12.667312 82.898796
77.736702 44.999439 83.291435
10.549592 51.687622 64.590515
28.713264 53.386818 107.99342
68.8321 57.645103 120.6513
79.130569 74.613976 84.774788
4.4010968 19.869026 80.977226
46.57135 25.72644 36.992058
12.421117 90.532333 66.369102
63.792755 93.779526 69.034317
9.9518461 11.398268 81.583199
25.440268 53.630859 107.17061
43.431686 95.441757 63.987705
73.737869 66.584167 58.307552
27.998613 12.164603 62.676476
13.912973 26.491381 45.740788
70.693398 64.521057 115.05105
4.9146366 80.276375 102.84388
8.1399908 78.485657 80.124603
37.847923 53.649895 41.479877
31.341064 79.207298 108.6052
6.9842787 35.876369 74.705093
7.6559277 59.377338 77.561897
53.534744 98.893562 70.683327
22.71232 19.089224 89.112305
35.857086 64.664902 115.69472
12.06408 64.633698 61.739613
30.31337 67.636963 115.58041
22.039709 54.972832 37.577908
35.779224 27.971096 30.883251
11.286165 45.774033 60.370651
30.655449 70.965141 117.34325
63.529236 83.679916 63.908447
56.875504 10.957767 69.052261
45.160999 99.137672 69.054359
10.767264 50.543209 101.39105
53.793015 40.174694 108.62726
65.010178 49.495441 116.52575
4.8534589 80.122337 93.210213
64.291809 81.601601 63.08942
28.591894 12.159822 87.344887
24.190065 60.40192 40.913204
20.626381 76.396416 47.881706
40.881218 19.6259 48.902683
43.572609 18.867182 50.83939
33.645821 19.528784 48.135071
43.647472 15.044408 58.790661
62.622284 46.464314 114.32086
45.90057 3.2594066 83.574089
23.398317 44.645859 32.806614
48.148266 89.448997 89.581337
80.954796 37.34206 45.76984
31.664427 86.057846 94.417526
4.2090096 57.626537 103.03951
2.3329523 69.873528 108.62143
9.0627966 40.867344 67.827652
49.522827 68.723732 121.66909
82.065971 91.968094 77.453499
30.089769 57.429333 41.130013
27.855516 85.477142 54.508942
84.013405 70.036591 63.000053
73.524117 10.374736 72.493919
19.44639 44.396458 100.82312
85.874023 25.230118 47.244869
76.439125 40.636765 87.29554
65.809555 47.907536 115.96255
5.1183405 81.965973 99.361282
70.553497 78.599724 115.1208
41.255497 43.436775 106.63903
84.514709 44.825153 57.047058
22.397032 22.626831 40.192287
32.227264 96.893059 71.984413
42.08276 82.916466 102.33907
52.699322 14.096416 95.2724
71.50502 52.170811 109.04739
48.101498 53.759415 44.494587
69.396088 38.309971 112.19912
25.468559 30.812328 26.487478
76.451431 70.10067 94.085091
81.596893 59.686859 71.77607
48.838406 91.32991 63.492565
25.472719 39.788082 100.25859
44.929871 12.969446 63.272888
79.375473 14.475093 69.872734
74.760056 11.271748 86.972725
4.0703077 43.112881 87.649818
23.229282 35.624641 97.529251
71.257362 81.63903 65.118919
39.154716 40.117054 35.090694
51.611675 47.039536 111.42998
66.489296 3.0230587 93.716545
75.486877 9.5828238 74.401955
83.042709 28.568871 58.965557
76.144791 26.380831 85.125351
32.270927 53.169479 39.62973
2.791702 64.019363 97.444313
1.0405978 63.739223 104.14912
37.216759 5.8394365 77.051056
6.7194514 66.942451 82.937836
77.706497 83.810913 68.066574
53.281307 45.33181 111.05811
9.8430338 22.396463 60.525043
47.439693 27.398941 33.634022
71.994911 90.438034 90.721596
59.53019 21.276081 47.973171
7.3915238 13.257813 67.882019
16.559395 62.546391 109.06468
27.728075 76.323174 49.895168
12.248422 93.355606 76.656273
47.657768 15.275797 58.84726
76.664444 53.155766 89.329521
73.053055 14.272925 64.332901
24.133221 5.104753 82.530251
83.794228 34.066498 57.335899
2.7831342 70.663071 99.019112
59.885521 13.068509 65.070778
51.841114 88.805153 91.413567
35.806519 12.34804 63.341473
11.547495 90.043617 69.633133
6.5359159 10.452908 70.53894
71.918648 77.349632 113.29105
2.868576 52.519985 94.478668
33.094128 11.900815 63.90712
25.272413 26.460884 93.53717
56.45377 80.989555 108.26728
17.091314 41.522343 36.941189
59.888832 87.121765 95.988754
73.941605 60.880848 101.64868
9.8977776 35.346142 63.31839
43.036808 52.756966 42.531315
65.977501 89.201759 92.483597
15.469181 7.2577786 81.105667
34.869598 29.003698 97.579048
31.495808 60.869362 43.255913
14.996265 91.692734 80.478798
82.155479 76.90937 73.613068
66.173714 57.455341 120.84158
73.54776 22.236837 94.203934
17.514212 31.05043 32.87624
55.409924 97.743385 68.596336
67.638504 41.188915 113.13122
14.169615 5.8883181 80.045792
4.7963099 32.845821 90.818695
24.87586 37.903511 29.861973
31.07037 5.5793762 84.770142
36.202477 13.224699 90.074318
16.088484 93.658875 76.540756
12.737625 58.649803 106.01315
61.432522 28.893827 105.19216
40.247681 22.352884 43.152905
77.005318 67.502747 91.340912
51.014908 15.280414 59.287437
4.5093112 6.166122 77.395996
5.3020658 17.852488 77.026115
41.061806 72.481934 121.10569
73.115921 71.726578 107.35755
80.572929 38.463215 70.809776
54.932869 24.141384 41.405003
77.28775 93.095779 72.588112
36.128098 91.779778 83.129105
77.581818 50.659203 51.454716
8.0433035 43.197868 72.309837
77.391785 55.730473 87.115028
5.3588243 60.120853 104.61859
57.795193 79.768333 60.297379
79.172501 82.495346 67.831978
26.954029 2.8183887 82.201363
24.897381 31.776937 26.804897
76.565094 60.640686 91.450447
45.120308 85.691444 59.60001
73.966942 4.3176241 88.425186
56.916828 61.688648 51.003971
24.700378 9.7646227 67.220192
19.043659 82.014519 101.12608
37.463326 12.178599 89.915237
19.103073 31.364319 26.806498
75.771248 35.964661 43.584782
51.852966 84.77095 99.795616
33.604973 46.084454 36.472321
28.925865 18.809235 90.766006
36.405327 87.416275 92.230774
24.971962 99.423996 65.75473
72.458664 76.355713 110.9727
6.1583061 8.157979 71.46624
73.689766 48.091415 49.047287
63.230972 3.461431 85.47625
33.162766 42.319267 34.46207
15.298851 57.554493 47.591171
10.708655 83.353699 71.323715
84.50518 60.975029 60.831478
6.3812122 84.937141 93.35833
24.338905 90.573959 84.054535
56.851425 55.875946 117.36077
68.931854 37.181713 111.50098
37.563248 59.777134 113.74335
17.530224 87.981667 88.527451
75.143265 55.55407 95.766914
31.902039 34.155991 30.016493
70.006378 48.064968 113.88841
72.564751 18.335451 55.828186
75.577858 20.835695 86.03038
48.122902 4.8206511 80.628578
62.957817 29.227339 105.79924
68.089523 50.033337 117.68362
16.697996 68.699615 44.768276
72.60981 49.849422 104.23757
12.958648 34.468716 51.281384
7.6799669 48.910767 75.040192
83.343567 79.412117 69.600624
23.001688 21.809397 41.971394
31.124098 78.653 109.72759
23.371033 99.741257 60.346439
72.844406 48.121609 48.818348
17.261774 40.03281 35.936546
47.950668 26.70804 35.137726
48.682178 29.611816 32.588417
9.4969444 87.20105 89.072823
82.960167 76.98716 70.520164
76.389725 42.96442 88.02668
13.79497 59.708714 53.905106
32.963516 20.302507 46.436367
75.332756 16.84631 86.052208
69.543503 82.229568 64.919441
73.700241 40.525429 97.858292
22.11532 12.859982 60.443714
55.071102 23.493849 42.768688
34.618404 53.011486 109.51043
6.0343747 70.308792 86.367516
71.131989 84.588997 102.7565
78.705269 59.387623 82.885727
49.873856 29.741117 102.27911
79.015343 38.213272 45.645573
12.81536 64.219841 58.739113
3.9780543 78.882805 105.61333
41.807781 14.385077 59.913849
71.745598 28.865952 102.70939
13.508579 78.590256 107.49792
72.461456 24.24832 43.53125
24.073271 19.215994 89.568558
50.860516 10.172496 69.877693
17.277227 3.3369148 79.57827
31.652912 22.528913 93.413071
82.878746 76.963936 66.136177
29.876034 90.120186 85.739014
10.779349 13.195131 58.22876
21.558115 43.272205 100.87061
82.633804 29.185371 42.176182
75.890686 40.407497 89.362617
10.682575 55.074883 64.862411
82.260323 85.598885 75.224144
8.7664862 76.488777 111.2281
61.224083 21.180769 48.398106
10.476622 81.453529 101.14368
46.826954 86.397003 95.744385
32.679031 79.206749 108.7856
75.564362 38.901493 90.274734
34.221199 92.223396 81.952072
12.809732 50.944916 55.680408
9.4567757 38.326271 94.904282
63.008564 34.440765 108.4206
2.1246157 73.728905 102.27638
59.787663 62.091049 121.31595
75.225029 7.8917947 84.390785
47.648109 7.9019108 74.164108
4.1860981 66.119957 92.540977
26.500257 14.14656 87.734459
3.6537523 75.275124 111.70352
23.191635 92.01149 80.914581
59.201248 80.562805 61.100502
16.89431 69.546661 44.205879
27.938061 89.173126 87.44677
66.682793 65.837227 55.897457
73.205551 12.907118 93.361946
20.43329 43.819851 100.81973
13.193063 9.6853104 65.843262
27.773806 47.085899 35.28973
23.108799 59.284641 40.042431
32.431309 84.805183 55.493881
2.3478451 46.464775 95.086708
53.944004 96.94902 74.777649
69.905121 95.82177 79.257729
32.506142 54.691624 40.458702
21.716702 7.4484677 83.004517
12.887177 33.162838 51.254662
64.476433 37.228481 110.23819
36.642052 71.390343 50.001995
24.399549 79.35585 107.36662
37.599236 91.287514 60.226894
52.156353 93.552765 65.561798
53.059723 98.50428 71.428345
59.423996 17.096905 56.640556
44.045311 82.393761 57.640839
51.940289 11.957541 66.314186
11.752053 17.205336 85.006409
34.811649 18.552519 50.319302
39.857651 81.274284 105.45236
5.2557459 62.086945 87.469833
54.612289 85.45459 62.221676
69.921867 35.461372 41.644562
68.116356 65.623047 125.26966
8.190587 17.813772 65.850029
61.05019 97.5588 74.462975
13.159107 48.22369 53.698254
46.554844 8.997798 90.949341
73.671631 3.6097572 89.402611
13.535823 57.80674 105.82204
48.011219 92.004036 84.25528
10.063886 21.159063 59.384094
5.7300982 18.088703 75.426147
74.301666 26.511021 92.281136
73.61367 52.687134 101.01514
78.527222 22.273794 74.961777
13.522639 83.05603 98.222832
78.888466 25.403854 41.991852
12.969838 91.249161 81.128746
47.664356 19.817183 96.679314
34.352005 81.065247 54.178368
15.960794 66.169258 47.031151
85.688843 45.476093 51.203453
61.729309 6.1390104 79.712799
65.75544 37.225559 110.60595
3.3892281 57.852364 102.91578
17.91721 96.571251 57.187054
43.703457 88.883804 90.159958
32.81089 82.318657 54.360195
13.663809 12.756116 83.333672
15.429734 59.997974 47.652191
41.583309 32.723667 32.095074
71.288979 59.68187 111.62556
1.5678077 58.345707 100.85934
5.1212134 61.116722 87.764801
9.9411802 17.047186 58.904308
7.3505635 50.835201 100.55074
82.897942 70.707542 63.013519
70.695763 71.193626 116.59024
74.249016 45.905579 96.985207
32.863098 85.41684 95.909721
39.816185 4.2617927 80.676636
19.286394 43.572361 100.36489
68.756088 47.479454 116.59911
9.8642149 7.0294485 70.914436
16.045721 26.589338 37.518261
40.381363 5.255476 78.688126
38.712742 96.976387 63.392773
26.23868 44.78828 102.9798
64.179413 25.825809 39.144665
9.3340521 33.523155 65.074745
51.659649 39.889545 38.586803
69.244286 73.58876 122.75748
26.946922 21.256578 43.648354
69.257179 35.655495 110.83178
81.494812 73.547363 75.387054
83.342339 65.205841 66.308807
15.36727 52.761818 46.214512
34.954178 18.057264 51.367218
78.429169 49.767235 81.720703
81.458321 74.212448 75.682472
25.005856 78.773766 108.65704
70.763412 12.345948 68.029152
17.46306 95.034142 56.287399
49.438732 97.729721 72.552261
30.378326 41.996227 102.77879
80.987419 26.187328 66.358749
3.2735503 69.237488 96.792336
7.1537313 57.635342 103.89398
80.407539 62.270206 76.973618
78.987732 38.717999 76.997314
61.871555 8.4406147 95.092293
80.906837 49.674213 51.922073
28.561899 83.974518 98.329681
53.978027 23.255873 43.116596
36.421711 53.225075 40.855755
71.008232 36.556194 107.34462
64.368576 93.023811 84.328308
25.103132 69.665436 115.09058
72.341873 9.1617651 95.831841
19.900755 38.236092 28.592073
58.540718 8.3824434 74.625206
15.013624 54.154537 47.904903
50.627861 27.356831 34.148636
16.74612 48.807098 39.966156
69.17556 83.39994 104.96446
46.635475 67.223938 50.803646
71.618416 5.0521688 96.211746
57.819603 76.207092 58.523804
49.962978 31.052631 33.678558
47.58094 10.220756 69.338058
5.6458616 82.467331 90.690918
41.846264 80.98278 106.32433
34.088299 24.637909 37.580906
9.4149847 75.638458 74.534744
85.863663 24.188486 47.043224
48.283413 50.177361 42.756077
55.993004 32.621418 36.203674
80.165329 62.448479 77.95137
3.6155803 28.102699 85.924683
12.732119 77.499954 62.142586
14.238515 93.622803 60.060139
57.735901 81.635544 107.09712
47.485268 60.346184 116.89211
82.495857 86.794067 74.590904
8.309907 25.909557 88.364845
25.028873 95.025963 58.467369
34.025711 99.903076 65.972504
69.180481 85.626404 66.513062
57.650761 24.531118 40.959518
27.724392 48.818581 105.42384
13.967199 50.696793 51.148037
17.658875 81.492447 102.02508
9.1311312 34.525322 66.091797
78.562881 65.980438 84.966057
12.142241 92.108696 67.813042
18.112402 63.475956 40.695751
11.328635 44.468662 59.903553
17.808414 55.444576 37.399525
33.543175 37.863918 101.62625
14.908357 98.312401 58.558743
31.930021 64.241676 45.067413
50.425526 14.753752 94.944687
13.8797 29.096254 91.566055
25.717119 60.956791 110.9135
20.305815 18.989834 88.367912
78.380318 68.25325 86.199257
18.630457 36.069019 29.725372
71.230888 30.576611 105.09628
29.019547 12.893847 61.298355
11.567171 71.923508 65.35228
68.73085 20.6849 103.19454
35.600422 29.828594 98.202461
33.089001 37.126362 31.844328
27.323565 90.970062 83.631577
66.942368 25.713133 105.19238
30.765686 12.983969 88.384483
5.3611827 15.20039 76.182144
22.162909 77.048912 111.8593
23.676437 79.343597 107.2952
38.54604 30.19656 29.954737
74.778954 21.960337 89.379936
80.777206 91.405937 82.30545
12.747826 33.346909 51.836109
30.441334 26.381268 33.470741
75.761299 22.38628 85.681
2.7627771 77.468384 108.38879
51.295708 90.33609 88.160217
62.299778 9.6718273 95.83152
50.555794 46.562397 110.88661
24.774828 12.032189 62.519634
83.222633 27.463112 58.013401
65.624168 96.681168 76.898903
66.540886 19.37318 52.865417
66.014557 96.156761 78.040581
15.127386 45.546249 100.15123
37.271305 41.241165 35.109055
11.379051 76.192528 67.07019
41.359108 99.761566 67.24894
6.7704091 10.620369 69.671242
28.745174 51.7533 37.903843
78.314034 82.15715 67.41507
67.17897 61.155842 53.700001
75.528931 29.002489 88.114647
67.119621 28.865379 37.537628
54.253372 53.218014 45.999783
10.6196 34.700958 60.378098
14.23462 29.588247 45.215923
85.170753 25.888002 50.116402
19.638275 18.600533 87.98056
48.415192 6.4176393 77.350227
15.068542 47.77467 101.24846
69.236053 53.4753 118.12202
62.788845 37.75782 110.01569
35.514538 57.572273 42.767475
59.527924 0.86029571 90.383606
54.857422 39.912346 39.52132
70.157539 47.449448 47.706638
20.352846 18.053545 87.913345
50.746094 25.942911 100.6318
60.187553 5.5296836 80.772026
66.732529 82.682747 64.334572
19.774693 89.853127 54.364201
52.141804 93.768463 81.143326
79.795372 51.980488 76.952538
62.666534 82.63311 63.136002
70.14045 34.420258 110.20382
66.897354 69.987518 127.31657
25.798582 10.348371 66.154678
39.703823 42.124805 105.53512
76.545746 63.473007 92.182526
70.377769 28.408575 107.53181
39.222073 54.184849 111.42606
40.432198 12.080227 90.723091
82.203568 73.670807 72.675644
29.640926 17.671713 51.456303
25.876431 90.89212 83.599609
18.380989 73.446701 45.758659
32.317448 29.424776 97.052841
14.160956 43.774368 48.79261
16.451696 69.879997 45.994389
49.956367 9.8772058 70.36998
70.855896 49.198742 110.86729
80.751595 16.668339 65.061531
32.202362 93.934708 78.126595
85.277237 26.095762 49.752937
21.032911 69.87558 114.02068
21.858946 63.199841 41.639233
67.643898 25.489382 40.307701
58.520397 30.597496 35.921307
10.657728 80.989784 102.13131
39.941051 98.21019 70.281715
10.930997 62.034664 65.517036
43.531502 39.866726 36.229
80.623566 85.380791 81.501244
4.9568877 79.917351 103.59535
60.324394 7.3054371 94.078079
8.7234325 48.777554 70.975212
2.334439 58.335724 97.893211
44.232864 64.861618 118.21095
4.5325809 42.194134 85.649467
74.435112 74.455963 102.89088
74.34388 90.007011 70.193909
30.11762 42.519337 33.683048
12.786943 52.563572 102.98427
80.871666 28.126284 67.256172
80.376686 97.709755 76.73864
35.371319 92.943703 80.60984
45.351887 61.75293 47.697601
73.049576 17.472723 57.685333
17.019016 23.974859 36.671444
44.733593 99.885155 67.444321
22.628698 92.226822 80.391846
67.229515 60.297607 122.5675
77.835548 16.971693 76.405426
83.327896 44.303825 49.93578
52.388832 5.8257027 79.112259
70.3405 73.17128 118.42267
69.269638 24.355095 42.881817
56.079571 96.154152 67.995033
5.4893327 64.812363 87.199211
2.7240899 69.369171 98.947121
83.994308 75.014023 65.483261
78.119087 76.599785 64.580109
69.941101 2.8313184 87.684196
9.121726 83.96154 95.752151
37.503551 74.652901 118.89191
80.62989 74.299904 78.905495
43.229885 78.252235 112.182
32.878868 15.726274 55.931465
30.413942 30.134441 27.576145
55.935268 90.943741 65.348175
74.067917 39.220665 96.134071
63.479458 96.544067 70.326149
3.6506522 47.76844 90.352539
40.078537 13.636664 61.236889
9.3854284 56.690273 70.252075
10.651993 27.283424 58.53162
71.759705 13.773838 99.152756
37.436611 46.616852 107.12666
41.722416 62.84671 47.196754
6.1345215 16.083279 73.39727
71.508789 32.922714 104.56629
80.603104 49.933617 73.354851
35.907154 26.810831 33.310669
84.64183 28.241312 52.70731
73.803207 94.994179 81.499153
23.086681 69.293472 45.040462
27.26405 41.874104 101.81872
5.9919529 22.926699 86.204285
79.930519 20.363907 69.093399
76.853058 35.477409 84.498039
70.503922 84.682205 102.47873
18.488279 9.0320282 67.90979
83.537056 33.223442 58.134483
13.911205 95.888489 61.85128
73.148491 32.146843 98.047112
78.146019 72.47718 88.085228
52.391598 94.757317 79.122589
68.002037 19.861053 52.047691
41.746838 92.505829 62.033363
19.910604 29.678942 93.598373
36.169434 86.871727 93.330383
14.157099 90.922615 59.748322
31.251902 6.1415434 75.624336
76.510605 40.945614 87.090851
10.676362 47.534924 63.136784
52.922878 9.0362387 92.806847
5.8181562 45.513664 81.449699
20.919975 51.190926 35.363716
33.075348 90.819977 58.687195
12.058078 90.055054 67.661865
39.660187 40.786003 35.571087
63.021282 68.895721 125.65174
28.935665 19.744656 47.055588
70.469505 40.992657 44.568295
64.866776 82.946602 105.32896
41.183544 21.600925 44.840366
39.190178 41.709778 105.17933
16.178877 57.661236 44.213741
18.953728 9.2590971 67.500443
45.425541 90.761627 86.489777
22.246794 10.139002 84.502808
74.78643 69.812378 100.45511
61.408543 73.690742 58.30167
56.040203 91.082382 65.447777
70.609978 67.956673 116.17077
19.197882 58.872955 107.98963
78.785133 25.106846 74.622108
11.193864 63.636425 64.872475
19.664551 56.922894 37.867287
43.405193 8.3597193 72.644638
18.798849 50.603451 34.457657
74.652275 58.283459 98.298492
66.668846 32.305622 108.40966
45.065121 86.162437 59.819569
22.414888 79.132973 107.56371
14.321866 24.405672 43.676006
18.115612 76.05439 46.985897
1.3223591 64.348763 105.56733
66.979881 20.331736 102.5125
49.083141 84.234505 100.53893
79.985069 80.397278 67.017509
75.464714 60.66526 95.710266
21.98893 46.255009 33.204334
79.992943 41.679886 73.798447
25.540365 24.458807 36.807755
65.899353 17.57832 56.508022
78.979271 94.992737 74.024895
4.5767403 18.727812 80.033363
69.244385 6.6882496 96.344467
73.587601 26.703768 95.086449
38.273106 13.999419 60.24144
83.42292 49.573406 62.369759
4.8507385 73.022369 91.573174
55.250912 87.387337 94.815689
82.016594 24.731991 62.042187
56.465034 52.166729 115.39462
8.3607292 10.049122 64.440094
63.797264 77.910172 61.100948
31.359268 98.149887 69.257248
30.224348 81.267235 104.17638
40.754517 41.196495 105.37427
56.260632 97.125389 68.532921
4.140801 75.843819 94.972527
78.070656 83.177971 90.859718
61.582355 17.968376 55.119373
47.15448 28.939737 101.09341
59.954479 1.6604509 91.148804
9.0852118 18.626295 62.579937
47.05872 87.643898 93.185196
56.402313 81.330154 107.55286
58.089378 11.90329 67.25071
59.484371 93.079941 83.557343
18.01832 39.3461 32.852364
19.406422 34.682606 95.954674
21.112551 54.119099 36.883392
10.498842 32.957081 60.440273
8.3615694 89.109695 84.955788
41.352985 11.998039 64.811623
45.871429 93.357552 81.15686
65.92363 37.448086 110.76576
44.72913 90.756889 86.406319
22.971996 4.0389214 81.662117
10.894279 83.60347 96.733459
76.836563 70.985023 92.801376
58.52634 86.853439 96.363617
35.830345 60.436737 44.290871
35.414658 49.243404 38.574211
10.531939 53.41032 65.058525
68.807381 55.40937 120.22807
74.450195 13.311327 66.517654
6.7065849 70.117737 83.724403
33.112556 78.595398 110.11367
64.437424 29.349821 37.005566
58.786636 9.840764 71.628716
68.17643 30.854824 38.837425
77.563721 27.174675 39.707226
63.642807 63.304726 53.753632
32.637386 26.833193 32.826145
70.537598 18.591997 55.023663
31.060595 42.781094 34.086143
78.525177 20.996874 51.098026
7.4300251 38.853348 94.582748
74.654823 7.5123672 86.507172
80.859924 22.533852 48.217983
22.107319 81.822121 101.93622
14.38044 88.956924 58.428738
20.171968 71.111595 45.10812
16.2603 70.903809 113.15705
20.234135 47.166954 102.43578
67.856377 51.326618 118.26296
45.5196 14.955902 93.629539
32.143795 9.578392 87.079521
30.999386 15.929689 55.257095
4.9293981 28.124193 80.850418
58.543728 36.601067 108.21186
60.997112 38.690067 109.96459
69.703018 92.233871 86.683968
41.009895 12.863181 62.96846
34.04884 7.4753151 73.22834
13.764036 74.223534 57.392872
29.331387 12.497967 62.16251
79.930244 84.107681 68.856888
71.333626 4.5921402 84.212921
6.3997707 30.654709 75.753128
5.781158 44.921413 81.455299
9.4029112 86.673943 77.14222
2.5985565 50.497265 99.009979
17.953629 50.876945 103.63245
4.4222889 17.458158 80.335854
12.43575 73.455864 113.32903
56.080544 77.501686 58.669079
11.182327 68.031693 65.937004
69.74855 52.691048 50.20937
18.342478 38.995094 31.51771
72.176231 37.812119 43.470715
63.417091 50.703346 116.66982
50.445717 75.002686 119.89919
81.285355 34.554905 44.471684
80.389122 59.448406 76.389999
56.247608 2.5191255 90.508057
39.084034 4.2371664 86.412384
71.365555 28.268612 104.04006
36.940449 23.825384 95.587692
35.5298 83.106201 101.06699
9.5838861 76.98893 110.29862
61.422752 63.362827 122.42385
82.591721 39.574364 63.262928
68.191971 69.319695 125.83513
58.743145 76.544449 117.80805
4.7158303 68.757385 91.105042
36.977505 27.424644 97.398018
77.954201 74.135025 63.300129
78.993431 32.661392 42.863312
5.1045299 76.514633 110.68377
74.429848 62.291489 100.08846
67.880585 3.896172 94.554726
44.940643 4.5932336 80.67466
55.237061 83.446686 102.99997
74.464966 4.9171934 86.638939
15.687569 62.481483 47.231689
33.74984 37.894875 32.41935
63.029148 23.58864 43.637943
33.445942 9.7522278 68.417625
50.470516 27.761652 33.286602
46.155087 40.484737 106.5774
52.05933 90.476883 87.970032
51.143093 22.291639 44.739841
42.746487 86.281113 59.209579
20.681391 33.996784 26.697769
84.202606 59.465538 61.650959
10.089589 19.076969 58.801567
6.9584947 35.144913 74.63504
63.654575 53.532562 48.870949
10.70406 30.587597 59.097069
37.11985 35.866508 32.378006
7.9880104 63.85997 107.24713
80.470634 93.432709 83.960953
55.28772 54.757275 116.35003
71.578094 32.191055 104.12856
45.990929 99.688919 66.850075
23.703363 8.8879843 84.297775
69.057907 45.698387 46.513668
9.7027397 10.748302 81.186302
12.272599 49.497005 57.420994
15.800872 36.489388 95.817215
14.213322 46.308502 49.178215
56.572796 35.76799 107.22637
55.906094 20.91552 48.236649
16.925711 54.674183 40.633312
67.623779 33.170116 109.11757
69.917938 33.752117 110.07084
64.357674 74.09996 123.63832
80.70768 26.943972 67.615784
15.254221 79.065758 52.755417
54.291286 50.366863 44.585152
6.6131611 23.972628 73.377571
9.3442116 88.922691 85.475914
